# .PCD v0.7 - Point Cloud Data file format
VERSION 0.7
FIELDS x y z normal_x normal_y normal_z
SIZE 4 4 4 4 4 4
TYPE F F F F F F
COUNT 1 1 1 1 1 1
WIDTH 842
HEIGHT 1
VIEWPOINT 0 0 0 1 0 0 0
POINTS 842
DATA ascii
10.00000 0.5000000 9.500000 1.000000 0.000000 -0.000000 
10.00000 0.000000 9.500000 1.000000 0.000000 -0.000000 
10.00000 10.00000 10.00000 1.000000 0.000000 -0.000000 
10.00000 9.500000 10.00000 1.000000 0.000000 -0.000000 
10.00000 9.000000 10.00000 1.000000 0.000000 -0.000000 
10.00000 8.500000 10.00000 1.000000 0.000000 -0.000000 
10.00000 8.000000 10.00000 1.000000 0.000000 -0.000000 
10.00000 7.500000 10.00000 1.000000 0.000000 -0.000000 
10.00000 7.000000 10.00000 1.000000 0.000000 -0.000000 
10.00000 6.500000 10.00000 1.000000 0.000000 -0.000000 
10.00000 6.000000 10.00000 1.000000 0.000000 -0.000000 
10.00000 5.500000 10.00000 1.000000 0.000000 -0.000000 
10.00000 5.000000 10.00000 1.000000 0.000000 -0.000000 
10.00000 4.500000 10.00000 1.000000 0.000000 -0.000000 
10.00000 4.000000 10.00000 1.000000 0.000000 -0.000000 
10.00000 3.500000 10.00000 1.000000 0.000000 -0.000000 
10.00000 3.000000 10.00000 1.000000 0.000000 -0.000000 
10.00000 2.500000 10.00000 1.000000 0.000000 -0.000000 
10.00000 2.000000 10.00000 1.000000 0.000000 -0.000000 
10.00000 1.500000 10.00000 1.000000 0.000000 -0.000000 
10.00000 1.000000 10.00000 1.000000 0.000000 -0.000000 
10.00000 0.5000000 10.00000 1.000000 0.000000 -0.000000 
10.00000 0.000000 10.00000 1.000000 0.000000 -0.000000 
0.000000 0.000000 0.000000 -0.000000 -1.000000 -0.000000 
0.5000000 0.000000 0.000000 -0.000000 -1.000000 -0.000000 
1.000000 0.000000 0.000000 -0.000000 -1.000000 -0.000000 
1.500000 0.000000 0.000000 -0.000000 -1.000000 -0.000000 
2.000000 0.000000 0.000000 -0.000000 -1.000000 -0.000000 
2.500000 0.000000 0.000000 -0.000000 -1.000000 -0.000000 
3.000000 0.000000 0.000000 -0.000000 -1.000000 -0.000000 
3.500000 0.000000 0.000000 -0.000000 -1.000000 -0.000000 
4.000000 0.000000 0.000000 -0.000000 -1.000000 -0.000000 
4.500000 0.000000 0.000000 -0.000000 -1.000000 -0.000000 
5.000000 0.000000 0.000000 -0.000000 -1.000000 -0.000000 
5.500000 0.000000 0.000000 -0.000000 -1.000000 -0.000000 
6.000000 0.000000 0.000000 -0.000000 -1.000000 -0.000000 
6.500000 0.000000 0.000000 -0.000000 -1.000000 -0.000000 
7.000000 0.000000 0.000000 -0.000000 -1.000000 -0.000000 
7.500000 0.000000 0.000000 -0.000000 -1.000000 -0.000000 
8.000000 0.000000 0.000000 -0.000000 -1.000000 -0.000000 
8.500000 0.000000 0.000000 -0.000000 -1.000000 -0.000000 
9.000000 0.000000 0.000000 -0.000000 -1.000000 -0.000000 
9.500000 0.000000 0.000000 -0.000000 -1.000000 -0.000000 
10.00000 0.000000 0.000000 -0.000000 -1.000000 -0.000000 
0.000000 0.000000 0.5000000 -0.000000 -1.000000 -0.000000 
0.5000000 0.000000 0.5000000 -0.000000 -1.000000 -0.000000 
1.000000 0.000000 0.5000000 -0.000000 -1.000000 -0.000000 
1.500000 0.000000 0.5000000 -0.000000 -1.000000 -0.000000 
2.000000 0.000000 0.5000000 -0.000000 -1.000000 -0.000000 
2.500000 0.000000 0.5000000 -0.000000 -1.000000 -0.000000 
3.000000 0.000000 0.5000000 -0.000000 -1.000000 -0.000000 
3.500000 0.000000 0.5000000 -0.000000 -1.000000 -0.000000 
4.000000 0.000000 0.5000000 -0.000000 -1.000000 -0.000000 
4.500000 0.000000 0.5000000 -0.000000 -1.000000 -0.000000 
5.000000 0.000000 0.5000000 -0.000000 -1.000000 -0.000000 
5.500000 0.000000 0.5000000 -0.000000 -1.000000 -0.000000 
6.000000 0.000000 0.5000000 -0.000000 -1.000000 -0.000000 
6.500000 0.000000 0.5000000 -0.000000 -1.000000 -0.000000 
7.000000 0.000000 0.5000000 -0.000000 -1.000000 -0.000000 
7.500000 0.000000 0.5000000 -0.000000 -1.000000 -0.000000 
8.000000 0.000000 0.5000000 -0.000000 -1.000000 -0.000000 
8.500000 0.000000 0.5000000 -0.000000 -1.000000 -0.000000 
9.000000 0.000000 0.5000000 -0.000000 -1.000000 -0.000000 
9.500000 0.000000 0.5000000 -0.000000 -1.000000 -0.000000 
10.00000 0.000000 0.5000000 -0.000000 -1.000000 -0.000000 
0.000000 0.000000 1.000000 -0.000000 -1.000000 -0.000000 
0.5000000 0.000000 1.000000 -0.000000 -1.000000 -0.000000 
1.000000 0.000000 1.000000 -0.000000 -1.000000 -0.000000 
1.500000 0.000000 1.000000 -0.000000 -1.000000 -0.000000 
2.000000 0.000000 1.000000 -0.000000 -1.000000 -0.000000 
2.500000 0.000000 1.000000 -0.000000 -1.000000 -0.000000 
3.000000 0.000000 1.000000 -0.000000 -1.000000 -0.000000 
3.500000 0.000000 1.000000 -0.000000 -1.000000 -0.000000 
4.000000 0.000000 1.000000 -0.000000 -1.000000 -0.000000 
4.500000 0.000000 1.000000 -0.000000 -1.000000 -0.000000 
5.000000 0.000000 1.000000 -0.000000 -1.000000 -0.000000 
5.500000 0.000000 1.000000 -0.000000 -1.000000 -0.000000 
6.000000 0.000000 1.000000 -0.000000 -1.000000 -0.000000 
6.500000 0.000000 1.000000 -0.000000 -1.000000 -0.000000 
7.000000 0.000000 1.000000 -0.000000 -1.000000 -0.000000 
7.500000 0.000000 1.000000 -0.000000 -1.000000 -0.000000 
8.000000 0.000000 1.000000 -0.000000 -1.000000 -0.000000 
8.500000 0.000000 1.000000 -0.000000 -1.000000 -0.000000 
9.000000 0.000000 1.000000 -0.000000 -1.000000 -0.000000 
9.500000 0.000000 1.000000 -0.000000 -1.000000 -0.000000 
10.00000 0.000000 1.000000 -0.000000 -1.000000 -0.000000 
0.000000 0.000000 1.500000 -0.000000 -1.000000 -0.000000 
0.5000000 0.000000 1.500000 -0.000000 -1.000000 -0.000000 
1.000000 0.000000 1.500000 -0.000000 -1.000000 -0.000000 
1.500000 0.000000 1.500000 -0.000000 -1.000000 -0.000000 
2.000000 0.000000 1.500000 -0.000000 -1.000000 -0.000000 
2.500000 0.000000 1.500000 -0.000000 -1.000000 -0.000000 
3.000000 0.000000 1.500000 -0.000000 -1.000000 -0.000000 
3.500000 0.000000 1.500000 -0.000000 -1.000000 -0.000000 
4.000000 0.000000 1.500000 -0.000000 -1.000000 -0.000000 
4.500000 0.000000 1.500000 -0.000000 -1.000000 -0.000000 
5.000000 0.000000 1.500000 -0.000000 -1.000000 -0.000000 
5.500000 0.000000 1.500000 -0.000000 -1.000000 -0.000000 
6.000000 0.000000 1.500000 -0.000000 -1.000000 -0.000000 
6.500000 0.000000 1.500000 -0.000000 -1.000000 -0.000000 
7.000000 0.000000 1.500000 -0.000000 -1.000000 -0.000000 
7.500000 0.000000 1.500000 -0.000000 -1.000000 -0.000000 
8.000000 0.000000 1.500000 -0.000000 -1.000000 -0.000000 
8.500000 0.000000 1.500000 -0.000000 -1.000000 -0.000000 
9.000000 0.000000 1.500000 -0.000000 -1.000000 -0.000000 
9.500000 0.000000 1.500000 -0.000000 -1.000000 -0.000000 
10.00000 0.000000 1.500000 -0.000000 -1.000000 -0.000000 
0.000000 0.000000 2.000000 -0.000000 -1.000000 -0.000000 
0.5000000 0.000000 2.000000 -0.000000 -1.000000 -0.000000 
1.000000 0.000000 2.000000 -0.000000 -1.000000 -0.000000 
1.500000 0.000000 2.000000 -0.000000 -1.000000 -0.000000 
2.000000 0.000000 2.000000 -0.000000 -1.000000 -0.000000 
2.500000 0.000000 2.000000 -0.000000 -1.000000 -0.000000 
3.000000 0.000000 2.000000 -0.000000 -1.000000 -0.000000 
3.500000 0.000000 2.000000 -0.000000 -1.000000 -0.000000 
4.000000 0.000000 2.000000 -0.000000 -1.000000 -0.000000 
4.500000 0.000000 2.000000 -0.000000 -1.000000 -0.000000 
5.000000 0.000000 2.000000 -0.000000 -1.000000 -0.000000 
5.500000 0.000000 2.000000 -0.000000 -1.000000 -0.000000 
6.000000 0.000000 2.000000 -0.000000 -1.000000 -0.000000 
6.500000 0.000000 2.000000 -0.000000 -1.000000 -0.000000 
7.000000 0.000000 2.000000 -0.000000 -1.000000 -0.000000 
7.500000 0.000000 2.000000 -0.000000 -1.000000 -0.000000 
8.000000 0.000000 2.000000 -0.000000 -1.000000 -0.000000 
8.500000 0.000000 2.000000 -0.000000 -1.000000 -0.000000 
9.000000 0.000000 2.000000 -0.000000 -1.000000 -0.000000 
9.500000 0.000000 2.000000 -0.000000 -1.000000 -0.000000 
10.00000 0.000000 2.000000 -0.000000 -1.000000 -0.000000 
0.000000 0.000000 2.500000 -0.000000 -1.000000 -0.000000 
0.5000000 0.000000 2.500000 -0.000000 -1.000000 -0.000000 
1.000000 0.000000 2.500000 -0.000000 -1.000000 -0.000000 
1.500000 0.000000 2.500000 -0.000000 -1.000000 -0.000000 
2.000000 0.000000 2.500000 -0.000000 -1.000000 -0.000000 
2.500000 0.000000 2.500000 -0.000000 -1.000000 -0.000000 
3.000000 0.000000 2.500000 -0.000000 -1.000000 -0.000000 
3.500000 0.000000 2.500000 -0.000000 -1.000000 -0.000000 
4.000000 0.000000 2.500000 -0.000000 -1.000000 -0.000000 
4.500000 0.000000 2.500000 -0.000000 -1.000000 -0.000000 
5.000000 0.000000 2.500000 -0.000000 -1.000000 -0.000000 
5.500000 0.000000 2.500000 -0.000000 -1.000000 -0.000000 
6.000000 0.000000 2.500000 -0.000000 -1.000000 -0.000000 
6.500000 0.000000 2.500000 -0.000000 -1.000000 -0.000000 
7.000000 0.000000 2.500000 -0.000000 -1.000000 -0.000000 
7.500000 0.000000 2.500000 -0.000000 -1.000000 -0.000000 
8.000000 0.000000 2.500000 -0.000000 -1.000000 -0.000000 
8.500000 0.000000 2.500000 -0.000000 -1.000000 -0.000000 
9.000000 0.000000 2.500000 -0.000000 -1.000000 -0.000000 
9.500000 0.000000 2.500000 -0.000000 -1.000000 -0.000000 
10.00000 0.000000 2.500000 -0.000000 -1.000000 -0.000000 
0.000000 0.000000 3.000000 -0.000000 -1.000000 -0.000000 
0.5000000 0.000000 3.000000 -0.000000 -1.000000 -0.000000 
1.000000 0.000000 3.000000 -0.000000 -1.000000 -0.000000 
1.500000 0.000000 3.000000 -0.000000 -1.000000 -0.000000 
2.000000 0.000000 3.000000 -0.000000 -1.000000 -0.000000 
2.500000 0.000000 3.000000 -0.000000 -1.000000 -0.000000 
3.000000 0.000000 3.000000 -0.000000 -1.000000 -0.000000 
3.500000 0.000000 3.000000 -0.000000 -1.000000 -0.000000 
4.000000 0.000000 3.000000 -0.000000 -1.000000 -0.000000 
4.500000 0.000000 3.000000 -0.000000 -1.000000 -0.000000 
5.000000 0.000000 3.000000 -0.000000 -1.000000 -0.000000 
5.500000 0.000000 3.000000 -0.000000 -1.000000 -0.000000 
6.000000 0.000000 3.000000 -0.000000 -1.000000 -0.000000 
6.500000 0.000000 3.000000 -0.000000 -1.000000 -0.000000 
7.000000 0.000000 3.000000 -0.000000 -1.000000 -0.000000 
7.500000 0.000000 3.000000 -0.000000 -1.000000 -0.000000 
8.000000 0.000000 3.000000 -0.000000 -1.000000 -0.000000 
8.500000 0.000000 3.000000 -0.000000 -1.000000 -0.000000 
9.000000 0.000000 3.000000 -0.000000 -1.000000 -0.000000 
9.500000 0.000000 3.000000 -0.000000 -1.000000 -0.000000 
10.00000 0.000000 3.000000 -0.000000 -1.000000 -0.000000 
0.000000 0.000000 3.500000 -0.000000 -1.000000 -0.000000 
0.5000000 0.000000 3.500000 -0.000000 -1.000000 -0.000000 
1.000000 0.000000 3.500000 -0.000000 -1.000000 -0.000000 
1.500000 0.000000 3.500000 -0.000000 -1.000000 -0.000000 
2.000000 0.000000 3.500000 -0.000000 -1.000000 -0.000000 
2.500000 0.000000 3.500000 -0.000000 -1.000000 -0.000000 
3.000000 0.000000 3.500000 -0.000000 -1.000000 -0.000000 
3.500000 0.000000 3.500000 -0.000000 -1.000000 -0.000000 
4.000000 0.000000 3.500000 -0.000000 -1.000000 -0.000000 
4.500000 0.000000 3.500000 -0.000000 -1.000000 -0.000000 
5.000000 0.000000 3.500000 -0.000000 -1.000000 -0.000000 
5.500000 0.000000 3.500000 -0.000000 -1.000000 -0.000000 
6.000000 0.000000 3.500000 -0.000000 -1.000000 -0.000000 
6.500000 0.000000 3.500000 -0.000000 -1.000000 -0.000000 
7.000000 0.000000 3.500000 -0.000000 -1.000000 -0.000000 
7.500000 0.000000 3.500000 -0.000000 -1.000000 -0.000000 
8.000000 0.000000 3.500000 -0.000000 -1.000000 -0.000000 
8.500000 0.000000 3.500000 -0.000000 -1.000000 -0.000000 
9.000000 0.000000 3.500000 -0.000000 -1.000000 -0.000000 
9.500000 0.000000 3.500000 -0.000000 -1.000000 -0.000000 
10.00000 0.000000 3.500000 -0.000000 -1.000000 -0.000000 
0.000000 0.000000 4.000000 -0.000000 -1.000000 -0.000000 
0.5000000 0.000000 4.000000 -0.000000 -1.000000 -0.000000 
1.000000 0.000000 4.000000 -0.000000 -1.000000 -0.000000 
1.500000 0.000000 4.000000 -0.000000 -1.000000 -0.000000 
2.000000 0.000000 4.000000 -0.000000 -1.000000 -0.000000 
2.500000 0.000000 4.000000 -0.000000 -1.000000 -0.000000 
3.000000 0.000000 4.000000 -0.000000 -1.000000 -0.000000 
3.500000 0.000000 4.000000 -0.000000 -1.000000 -0.000000 
4.000000 0.000000 4.000000 -0.000000 -1.000000 -0.000000 
4.500000 0.000000 4.000000 -0.000000 -1.000000 -0.000000 
5.000000 0.000000 4.000000 -0.000000 -1.000000 -0.000000 
5.500000 0.000000 4.000000 -0.000000 -1.000000 -0.000000 
6.000000 0.000000 4.000000 -0.000000 -1.000000 -0.000000 
6.500000 0.000000 4.000000 -0.000000 -1.000000 -0.000000 
7.000000 0.000000 4.000000 -0.000000 -1.000000 -0.000000 
7.500000 0.000000 4.000000 -0.000000 -1.000000 -0.000000 
8.000000 0.000000 4.000000 -0.000000 -1.000000 -0.000000 
8.500000 0.000000 4.000000 -0.000000 -1.000000 -0.000000 
9.000000 0.000000 4.000000 -0.000000 -1.000000 -0.000000 
9.500000 0.000000 4.000000 -0.000000 -1.000000 -0.000000 
10.00000 0.000000 4.000000 -0.000000 -1.000000 -0.000000 
0.000000 0.000000 4.500000 -0.000000 -1.000000 -0.000000 
0.5000000 0.000000 4.500000 -0.000000 -1.000000 -0.000000 
1.000000 0.000000 4.500000 -0.000000 -1.000000 -0.000000 
1.500000 0.000000 4.500000 -0.000000 -1.000000 -0.000000 
2.000000 0.000000 4.500000 -0.000000 -1.000000 -0.000000 
2.500000 0.000000 4.500000 -0.000000 -1.000000 -0.000000 
3.000000 0.000000 4.500000 -0.000000 -1.000000 -0.000000 
3.500000 0.000000 4.500000 -0.000000 -1.000000 -0.000000 
4.000000 0.000000 4.500000 -0.000000 -1.000000 -0.000000 
4.500000 0.000000 4.500000 -0.000000 -1.000000 -0.000000 
5.000000 0.000000 4.500000 -0.000000 -1.000000 -0.000000 
5.500000 0.000000 4.500000 -0.000000 -1.000000 -0.000000 
6.000000 0.000000 4.500000 -0.000000 -1.000000 -0.000000 
6.500000 0.000000 4.500000 -0.000000 -1.000000 -0.000000 
7.000000 0.000000 4.500000 -0.000000 -1.000000 -0.000000 
7.500000 0.000000 4.500000 -0.000000 -1.000000 -0.000000 
8.000000 0.000000 4.500000 -0.000000 -1.000000 -0.000000 
8.500000 0.000000 4.500000 -0.000000 -1.000000 -0.000000 
9.000000 0.000000 4.500000 -0.000000 -1.000000 -0.000000 
9.500000 0.000000 4.500000 -0.000000 -1.000000 -0.000000 
10.00000 0.000000 4.500000 -0.000000 -1.000000 -0.000000 
0.000000 0.000000 5.000000 -0.000000 -1.000000 -0.000000 
0.5000000 0.000000 5.000000 -0.000000 -1.000000 -0.000000 
1.000000 0.000000 5.000000 -0.000000 -1.000000 -0.000000 
1.500000 0.000000 5.000000 -0.000000 -1.000000 -0.000000 
2.000000 0.000000 5.000000 -0.000000 -1.000000 -0.000000 
2.500000 0.000000 5.000000 -0.000000 -1.000000 -0.000000 
3.000000 0.000000 5.000000 -0.000000 -1.000000 -0.000000 
3.500000 0.000000 5.000000 -0.000000 -1.000000 -0.000000 
4.000000 0.000000 5.000000 -0.000000 -1.000000 -0.000000 
4.500000 0.000000 5.000000 -0.000000 -1.000000 -0.000000 
5.000000 0.000000 5.000000 -0.000000 -1.000000 -0.000000 
5.500000 0.000000 5.000000 -0.000000 -1.000000 -0.000000 
6.000000 0.000000 5.000000 -0.000000 -1.000000 -0.000000 
6.500000 0.000000 5.000000 -0.000000 -1.000000 -0.000000 
7.000000 0.000000 5.000000 -0.000000 -1.000000 -0.000000 
7.500000 0.000000 5.000000 -0.000000 -1.000000 -0.000000 
8.000000 0.000000 5.000000 -0.000000 -1.000000 -0.000000 
8.500000 0.000000 5.000000 -0.000000 -1.000000 -0.000000 
9.000000 0.000000 5.000000 -0.000000 -1.000000 -0.000000 
9.500000 0.000000 5.000000 -0.000000 -1.000000 -0.000000 
10.00000 0.000000 5.000000 -0.000000 -1.000000 -0.000000 
0.000000 0.000000 5.500000 -0.000000 -1.000000 -0.000000 
0.5000000 0.000000 5.500000 -0.000000 -1.000000 -0.000000 
1.000000 0.000000 5.500000 -0.000000 -1.000000 -0.000000 
1.500000 0.000000 5.500000 -0.000000 -1.000000 -0.000000 
2.000000 0.000000 5.500000 -0.000000 -1.000000 -0.000000 
2.500000 0.000000 5.500000 -0.000000 -1.000000 -0.000000 
3.000000 0.000000 5.500000 -0.000000 -1.000000 -0.000000 
3.500000 0.000000 5.500000 -0.000000 -1.000000 -0.000000 
4.000000 0.000000 5.500000 -0.000000 -1.000000 -0.000000 
4.500000 0.000000 5.500000 -0.000000 -1.000000 -0.000000 
5.000000 0.000000 5.500000 -0.000000 -1.000000 -0.000000 
5.500000 0.000000 5.500000 -0.000000 -1.000000 -0.000000 
6.000000 0.000000 5.500000 -0.000000 -1.000000 -0.000000 
6.500000 0.000000 5.500000 -0.000000 -1.000000 -0.000000 
7.000000 0.000000 5.500000 -0.000000 -1.000000 -0.000000 
7.500000 0.000000 5.500000 -0.000000 -1.000000 -0.000000 
8.000000 0.000000 5.500000 -0.000000 -1.000000 -0.000000 
8.500000 0.000000 5.500000 -0.000000 -1.000000 -0.000000 
9.000000 0.000000 5.500000 -0.000000 -1.000000 -0.000000 
9.500000 0.000000 5.500000 -0.000000 -1.000000 -0.000000 
10.00000 0.000000 5.500000 -0.000000 -1.000000 -0.000000 
0.000000 0.000000 6.000000 -0.000000 -1.000000 -0.000000 
0.5000000 0.000000 6.000000 -0.000000 -1.000000 -0.000000 
1.000000 0.000000 6.000000 -0.000000 -1.000000 -0.000000 
1.500000 0.000000 6.000000 -0.000000 -1.000000 -0.000000 
2.000000 0.000000 6.000000 -0.000000 -1.000000 -0.000000 
2.500000 0.000000 6.000000 -0.000000 -1.000000 -0.000000 
3.000000 0.000000 6.000000 -0.000000 -1.000000 -0.000000 
3.500000 0.000000 6.000000 -0.000000 -1.000000 -0.000000 
4.000000 0.000000 6.000000 -0.000000 -1.000000 -0.000000 
4.500000 0.000000 6.000000 -0.000000 -1.000000 -0.000000 
5.000000 0.000000 6.000000 -0.000000 -1.000000 -0.000000 
5.500000 0.000000 6.000000 -0.000000 -1.000000 -0.000000 
6.000000 0.000000 6.000000 -0.000000 -1.000000 -0.000000 
6.500000 0.000000 6.000000 -0.000000 -1.000000 -0.000000 
7.000000 0.000000 6.000000 -0.000000 -1.000000 -0.000000 
7.500000 0.000000 6.000000 -0.000000 -1.000000 -0.000000 
8.000000 0.000000 6.000000 -0.000000 -1.000000 -0.000000 
8.500000 0.000000 6.000000 -0.000000 -1.000000 -0.000000 
9.000000 0.000000 6.000000 -0.000000 -1.000000 -0.000000 
9.500000 0.000000 6.000000 -0.000000 -1.000000 -0.000000 
10.00000 0.000000 6.000000 -0.000000 -1.000000 -0.000000 
0.000000 0.000000 6.500000 -0.000000 -1.000000 -0.000000 
0.5000000 0.000000 6.500000 -0.000000 -1.000000 -0.000000 
1.000000 0.000000 6.500000 -0.000000 -1.000000 -0.000000 
1.500000 0.000000 6.500000 -0.000000 -1.000000 -0.000000 
2.000000 0.000000 6.500000 -0.000000 -1.000000 -0.000000 
2.500000 0.000000 6.500000 -0.000000 -1.000000 -0.000000 
3.000000 0.000000 6.500000 -0.000000 -1.000000 -0.000000 
3.500000 0.000000 6.500000 -0.000000 -1.000000 -0.000000 
4.000000 0.000000 6.500000 -0.000000 -1.000000 -0.000000 
4.500000 0.000000 6.500000 -0.000000 -1.000000 -0.000000 
5.000000 0.000000 6.500000 -0.000000 -1.000000 -0.000000 
5.500000 0.000000 6.500000 -0.000000 -1.000000 -0.000000 
6.000000 0.000000 6.500000 -0.000000 -1.000000 -0.000000 
6.500000 0.000000 6.500000 -0.000000 -1.000000 -0.000000 
7.000000 0.000000 6.500000 -0.000000 -1.000000 -0.000000 
7.500000 0.000000 6.500000 -0.000000 -1.000000 -0.000000 
8.000000 0.000000 6.500000 -0.000000 -1.000000 -0.000000 
8.500000 0.000000 6.500000 -0.000000 -1.000000 -0.000000 
9.000000 0.000000 6.500000 -0.000000 -1.000000 -0.000000 
9.500000 0.000000 6.500000 -0.000000 -1.000000 -0.000000 
10.00000 0.000000 6.500000 -0.000000 -1.000000 -0.000000 
0.000000 0.000000 7.000000 -0.000000 -1.000000 -0.000000 
0.5000000 0.000000 7.000000 -0.000000 -1.000000 -0.000000 
1.000000 0.000000 7.000000 -0.000000 -1.000000 -0.000000 
1.500000 0.000000 7.000000 -0.000000 -1.000000 -0.000000 
2.000000 0.000000 7.000000 -0.000000 -1.000000 -0.000000 
2.500000 0.000000 7.000000 -0.000000 -1.000000 -0.000000 
3.000000 0.000000 7.000000 -0.000000 -1.000000 -0.000000 
3.500000 0.000000 7.000000 -0.000000 -1.000000 -0.000000 
4.000000 0.000000 7.000000 -0.000000 -1.000000 -0.000000 
4.500000 0.000000 7.000000 -0.000000 -1.000000 -0.000000 
5.000000 0.000000 7.000000 -0.000000 -1.000000 -0.000000 
5.500000 0.000000 7.000000 -0.000000 -1.000000 -0.000000 
6.000000 0.000000 7.000000 -0.000000 -1.000000 -0.000000 
6.500000 0.000000 7.000000 -0.000000 -1.000000 -0.000000 
7.000000 0.000000 7.000000 -0.000000 -1.000000 -0.000000 
7.500000 0.000000 7.000000 -0.000000 -1.000000 -0.000000 
8.000000 0.000000 7.000000 -0.000000 -1.000000 -0.000000 
8.500000 0.000000 7.000000 -0.000000 -1.000000 -0.000000 
9.000000 0.000000 7.000000 -0.000000 -1.000000 -0.000000 
9.500000 0.000000 7.000000 -0.000000 -1.000000 -0.000000 
10.00000 0.000000 7.000000 -0.000000 -1.000000 -0.000000 
0.000000 0.000000 7.500000 -0.000000 -1.000000 -0.000000 
0.5000000 0.000000 7.500000 -0.000000 -1.000000 -0.000000 
1.000000 0.000000 7.500000 -0.000000 -1.000000 -0.000000 
1.500000 0.000000 7.500000 -0.000000 -1.000000 -0.000000 
2.000000 0.000000 7.500000 -0.000000 -1.000000 -0.000000 
2.500000 0.000000 7.500000 -0.000000 -1.000000 -0.000000 
3.000000 0.000000 7.500000 -0.000000 -1.000000 -0.000000 
3.500000 0.000000 7.500000 -0.000000 -1.000000 -0.000000 
4.000000 0.000000 7.500000 -0.000000 -1.000000 -0.000000 
4.500000 0.000000 7.500000 -0.000000 -1.000000 -0.000000 
5.000000 0.000000 7.500000 -0.000000 -1.000000 -0.000000 
5.500000 0.000000 7.500000 -0.000000 -1.000000 -0.000000 
6.000000 0.000000 7.500000 -0.000000 -1.000000 -0.000000 
6.500000 0.000000 7.500000 -0.000000 -1.000000 -0.000000 
7.000000 0.000000 7.500000 -0.000000 -1.000000 -0.000000 
7.500000 0.000000 7.500000 -0.000000 -1.000000 -0.000000 
8.000000 0.000000 7.500000 -0.000000 -1.000000 -0.000000 
8.500000 0.000000 7.500000 -0.000000 -1.000000 -0.000000 
9.000000 0.000000 7.500000 -0.000000 -1.000000 -0.000000 
9.500000 0.000000 7.500000 -0.000000 -1.000000 -0.000000 
10.00000 0.000000 7.500000 -0.000000 -1.000000 -0.000000 
0.000000 0.000000 8.000000 -0.000000 -1.000000 -0.000000 
0.5000000 0.000000 8.000000 -0.000000 -1.000000 -0.000000 
1.000000 0.000000 8.000000 -0.000000 -1.000000 -0.000000 
1.500000 0.000000 8.000000 -0.000000 -1.000000 -0.000000 
2.000000 0.000000 8.000000 -0.000000 -1.000000 -0.000000 
2.500000 0.000000 8.000000 -0.000000 -1.000000 -0.000000 
3.000000 0.000000 8.000000 -0.000000 -1.000000 -0.000000 
3.500000 0.000000 8.000000 -0.000000 -1.000000 -0.000000 
4.000000 0.000000 8.000000 -0.000000 -1.000000 -0.000000 
4.500000 0.000000 8.000000 -0.000000 -1.000000 -0.000000 
5.000000 0.000000 8.000000 -0.000000 -1.000000 -0.000000 
5.500000 0.000000 8.000000 -0.000000 -1.000000 -0.000000 
6.000000 0.000000 8.000000 -0.000000 -1.000000 -0.000000 
6.500000 0.000000 8.000000 -0.000000 -1.000000 -0.000000 
7.000000 0.000000 8.000000 -0.000000 -1.000000 -0.000000 
7.500000 0.000000 8.000000 -0.000000 -1.000000 -0.000000 
8.000000 0.000000 8.000000 -0.000000 -1.000000 -0.000000 
8.500000 0.000000 8.000000 -0.000000 -1.000000 -0.000000 
9.000000 0.000000 8.000000 -0.000000 -1.000000 -0.000000 
9.500000 0.000000 8.000000 -0.000000 -1.000000 -0.000000 
10.00000 0.000000 8.000000 -0.000000 -1.000000 -0.000000 
0.000000 0.000000 8.500000 -0.000000 -1.000000 -0.000000 
0.5000000 0.000000 8.500000 -0.000000 -1.000000 -0.000000 
1.000000 0.000000 8.500000 -0.000000 -1.000000 -0.000000 
1.500000 0.000000 8.500000 -0.000000 -1.000000 -0.000000 
2.000000 0.000000 8.500000 -0.000000 -1.000000 -0.000000 
2.500000 0.000000 8.500000 -0.000000 -1.000000 -0.000000 
3.000000 0.000000 8.500000 -0.000000 -1.000000 -0.000000 
3.500000 0.000000 8.500000 -0.000000 -1.000000 -0.000000 
4.000000 0.000000 8.500000 -0.000000 -1.000000 -0.000000 
4.500000 0.000000 8.500000 -0.000000 -1.000000 -0.000000 
5.000000 0.000000 8.500000 -0.000000 -1.000000 -0.000000 
5.500000 0.000000 8.500000 -0.000000 -1.000000 -0.000000 
6.000000 0.000000 8.500000 -0.000000 -1.000000 -0.000000 
6.500000 0.000000 8.500000 -0.000000 -1.000000 -0.000000 
7.000000 0.000000 8.500000 -0.000000 -1.000000 -0.000000 
7.500000 0.000000 8.500000 -0.000000 -1.000000 -0.000000 
8.000000 0.000000 8.500000 -0.000000 -1.000000 -0.000000 
8.500000 0.000000 8.500000 -0.000000 -1.000000 -0.000000 
9.000000 0.000000 8.500000 -0.000000 -1.000000 -0.000000 
9.500000 0.000000 8.500000 -0.000000 -1.000000 -0.000000 
10.00000 0.000000 8.500000 -0.000000 -1.000000 -0.000000 
0.000000 0.000000 9.000000 -0.000000 -1.000000 -0.000000 
0.5000000 0.000000 9.000000 -0.000000 -1.000000 -0.000000 
1.000000 0.000000 9.000000 -0.000000 -1.000000 -0.000000 
1.500000 0.000000 9.000000 -0.000000 -1.000000 -0.000000 
2.000000 0.000000 9.000000 -0.000000 -1.000000 -0.000000 
2.500000 0.000000 9.000000 -0.000000 -1.000000 -0.000000 
3.000000 0.000000 9.000000 -0.000000 -1.000000 -0.000000 
3.500000 0.000000 9.000000 -0.000000 -1.000000 -0.000000 
4.000000 0.000000 9.000000 -0.000000 -1.000000 -0.000000 
4.500000 0.000000 9.000000 -0.000000 -1.000000 -0.000000 
5.000000 0.000000 9.000000 -0.000000 -1.000000 -0.000000 
5.500000 0.000000 9.000000 -0.000000 -1.000000 -0.000000 
6.000000 0.000000 9.000000 -0.000000 -1.000000 -0.000000 
6.500000 0.000000 9.000000 -0.000000 -1.000000 -0.000000 
7.000000 0.000000 9.000000 -0.000000 -1.000000 -0.000000 
7.500000 0.000000 9.000000 -0.000000 -1.000000 -0.000000 
8.000000 0.000000 9.000000 -0.000000 -1.000000 -0.000000 
8.500000 0.000000 9.000000 -0.000000 -1.000000 -0.000000 
9.000000 0.000000 9.000000 -0.000000 -1.000000 -0.000000 
9.500000 0.000000 9.000000 -0.000000 -1.000000 -0.000000 
10.00000 0.000000 9.000000 -0.000000 -1.000000 -0.000000 
0.000000 0.000000 9.500000 -0.000000 -1.000000 -0.000000 
0.5000000 0.000000 9.500000 -0.000000 -1.000000 -0.000000 
1.000000 0.000000 9.500000 -0.000000 -1.000000 -0.000000 
1.500000 0.000000 9.500000 -0.000000 -1.000000 -0.000000 
2.000000 0.000000 9.500000 -0.000000 -1.000000 -0.000000 
2.500000 0.000000 9.500000 -0.000000 -1.000000 -0.000000 
3.000000 0.000000 9.500000 -0.000000 -1.000000 -0.000000 
3.500000 0.000000 9.500000 -0.000000 -1.000000 -0.000000 
4.000000 0.000000 9.500000 -0.000000 -1.000000 -0.000000 
4.500000 0.000000 9.500000 -0.000000 -1.000000 -0.000000 
5.000000 0.000000 9.500000 -0.000000 -1.000000 -0.000000 
5.500000 0.000000 9.500000 -0.000000 -1.000000 -0.000000 
6.000000 0.000000 9.500000 -0.000000 -1.000000 -0.000000 
6.500000 0.000000 9.500000 -0.000000 -1.000000 -0.000000 
7.000000 0.000000 9.500000 -0.000000 -1.000000 -0.000000 
7.500000 0.000000 9.500000 -0.000000 -1.000000 -0.000000 
8.000000 0.000000 9.500000 -0.000000 -1.000000 -0.000000 
8.500000 0.000000 9.500000 -0.000000 -1.000000 -0.000000 
9.000000 0.000000 9.500000 -0.000000 -1.000000 -0.000000 
9.500000 0.000000 9.500000 -0.000000 -1.000000 -0.000000 
10.00000 0.000000 9.500000 -0.000000 -1.000000 -0.000000 
0.000000 0.000000 10.00000 -0.000000 -1.000000 -0.000000 
0.5000000 0.000000 10.00000 -0.000000 -1.000000 -0.000000 
1.000000 0.000000 10.00000 -0.000000 -1.000000 -0.000000 
1.500000 0.000000 10.00000 -0.000000 -1.000000 -0.000000 
2.000000 0.000000 10.00000 -0.000000 -1.000000 -0.000000 
2.500000 0.000000 10.00000 -0.000000 -1.000000 -0.000000 
3.000000 0.000000 10.00000 -0.000000 -1.000000 -0.000000 
3.500000 0.000000 10.00000 -0.000000 -1.000000 -0.000000 
4.000000 0.000000 10.00000 -0.000000 -1.000000 -0.000000 
4.500000 0.000000 10.00000 -0.000000 -1.000000 -0.000000 
5.000000 0.000000 10.00000 -0.000000 -1.000000 -0.000000 
5.500000 0.000000 10.00000 -0.000000 -1.000000 -0.000000 
6.000000 0.000000 10.00000 -0.000000 -1.000000 -0.000000 
6.500000 0.000000 10.00000 -0.000000 -1.000000 -0.000000 
7.000000 0.000000 10.00000 -0.000000 -1.000000 -0.000000 
7.500000 0.000000 10.00000 -0.000000 -1.000000 -0.000000 
8.000000 0.000000 10.00000 -0.000000 -1.000000 -0.000000 
8.500000 0.000000 10.00000 -0.000000 -1.000000 -0.000000 
9.000000 0.000000 10.00000 -0.000000 -1.000000 -0.000000 
9.500000 0.000000 10.00000 -0.000000 -1.000000 -0.000000 
10.00000 0.000000 10.00000 -0.000000 -1.000000 -0.000000 
0.000000 10.00000 0.000000 0.000000 1.000000 0.000000 
0.5000000 10.00000 0.000000 0.000000 1.000000 0.000000 
1.000000 10.00000 0.000000 0.000000 1.000000 0.000000 
1.500000 10.00000 0.000000 0.000000 1.000000 0.000000 
2.000000 10.00000 0.000000 0.000000 1.000000 0.000000 
2.500000 10.00000 0.000000 0.000000 1.000000 0.000000 
3.000000 10.00000 0.000000 0.000000 1.000000 0.000000 
3.500000 10.00000 0.000000 0.000000 1.000000 0.000000 
4.000000 10.00000 0.000000 0.000000 1.000000 0.000000 
4.500000 10.00000 0.000000 0.000000 1.000000 0.000000 
5.000000 10.00000 0.000000 0.000000 1.000000 0.000000 
5.500000 10.00000 0.000000 0.000000 1.000000 0.000000 
6.000000 10.00000 0.000000 0.000000 1.000000 0.000000 
6.500000 10.00000 0.000000 0.000000 1.000000 0.000000 
7.000000 10.00000 0.000000 0.000000 1.000000 0.000000 
7.500000 10.00000 0.000000 0.000000 1.000000 0.000000 
8.000000 10.00000 0.000000 0.000000 1.000000 0.000000 
8.500000 10.00000 0.000000 0.000000 1.000000 0.000000 
9.000000 10.00000 0.000000 0.000000 1.000000 0.000000 
9.500000 10.00000 0.000000 0.000000 1.000000 0.000000 
10.00000 10.00000 0.000000 0.000000 1.000000 0.000000 
0.000000 10.00000 0.5000000 0.000000 1.000000 0.000000 
0.5000000 10.00000 0.5000000 0.000000 1.000000 0.000000 
1.000000 10.00000 0.5000000 0.000000 1.000000 0.000000 
1.500000 10.00000 0.5000000 0.000000 1.000000 0.000000 
2.000000 10.00000 0.5000000 0.000000 1.000000 0.000000 
2.500000 10.00000 0.5000000 0.000000 1.000000 0.000000 
3.000000 10.00000 0.5000000 0.000000 1.000000 0.000000 
3.500000 10.00000 0.5000000 0.000000 1.000000 0.000000 
4.000000 10.00000 0.5000000 0.000000 1.000000 0.000000 
4.500000 10.00000 0.5000000 0.000000 1.000000 0.000000 
5.000000 10.00000 0.5000000 0.000000 1.000000 0.000000 
5.500000 10.00000 0.5000000 0.000000 1.000000 0.000000 
6.000000 10.00000 0.5000000 0.000000 1.000000 0.000000 
6.500000 10.00000 0.5000000 0.000000 1.000000 0.000000 
7.000000 10.00000 0.5000000 0.000000 1.000000 0.000000 
7.500000 10.00000 0.5000000 0.000000 1.000000 0.000000 
8.000000 10.00000 0.5000000 0.000000 1.000000 0.000000 
8.500000 10.00000 0.5000000 0.000000 1.000000 0.000000 
9.000000 10.00000 0.5000000 0.000000 1.000000 0.000000 
9.500000 10.00000 0.5000000 0.000000 1.000000 0.000000 
10.00000 10.00000 0.5000000 0.000000 1.000000 0.000000 
0.000000 10.00000 1.000000 0.000000 1.000000 0.000000 
0.5000000 10.00000 1.000000 0.000000 1.000000 0.000000 
1.000000 10.00000 1.000000 0.000000 1.000000 0.000000 
1.500000 10.00000 1.000000 0.000000 1.000000 0.000000 
2.000000 10.00000 1.000000 0.000000 1.000000 0.000000 
2.500000 10.00000 1.000000 0.000000 1.000000 0.000000 
3.000000 10.00000 1.000000 0.000000 1.000000 0.000000 
3.500000 10.00000 1.000000 0.000000 1.000000 0.000000 
4.000000 10.00000 1.000000 0.000000 1.000000 0.000000 
4.500000 10.00000 1.000000 0.000000 1.000000 0.000000 
5.000000 10.00000 1.000000 0.000000 1.000000 0.000000 
5.500000 10.00000 1.000000 0.000000 1.000000 0.000000 
6.000000 10.00000 1.000000 0.000000 1.000000 0.000000 
6.500000 10.00000 1.000000 0.000000 1.000000 0.000000 
7.000000 10.00000 1.000000 0.000000 1.000000 0.000000 
7.500000 10.00000 1.000000 0.000000 1.000000 0.000000 
8.000000 10.00000 1.000000 0.000000 1.000000 0.000000 
8.500000 10.00000 1.000000 0.000000 1.000000 0.000000 
9.000000 10.00000 1.000000 0.000000 1.000000 0.000000 
9.500000 10.00000 1.000000 0.000000 1.000000 0.000000 
10.00000 10.00000 1.000000 0.000000 1.000000 0.000000 
0.000000 10.00000 1.500000 0.000000 1.000000 0.000000 
0.5000000 10.00000 1.500000 0.000000 1.000000 0.000000 
1.000000 10.00000 1.500000 0.000000 1.000000 0.000000 
1.500000 10.00000 1.500000 0.000000 1.000000 0.000000 
2.000000 10.00000 1.500000 0.000000 1.000000 0.000000 
2.500000 10.00000 1.500000 0.000000 1.000000 0.000000 
3.000000 10.00000 1.500000 0.000000 1.000000 0.000000 
3.500000 10.00000 1.500000 0.000000 1.000000 0.000000 
4.000000 10.00000 1.500000 0.000000 1.000000 0.000000 
4.500000 10.00000 1.500000 0.000000 1.000000 0.000000 
5.000000 10.00000 1.500000 0.000000 1.000000 0.000000 
5.500000 10.00000 1.500000 0.000000 1.000000 0.000000 
6.000000 10.00000 1.500000 0.000000 1.000000 0.000000 
6.500000 10.00000 1.500000 0.000000 1.000000 0.000000 
7.000000 10.00000 1.500000 0.000000 1.000000 0.000000 
7.500000 10.00000 1.500000 0.000000 1.000000 0.000000 
8.000000 10.00000 1.500000 0.000000 1.000000 0.000000 
8.500000 10.00000 1.500000 0.000000 1.000000 0.000000 
9.000000 10.00000 1.500000 0.000000 1.000000 0.000000 
9.500000 10.00000 1.500000 0.000000 1.000000 0.000000 
10.00000 10.00000 1.500000 0.000000 1.000000 0.000000 
0.000000 10.00000 2.000000 0.000000 1.000000 0.000000 
0.5000000 10.00000 2.000000 0.000000 1.000000 0.000000 
1.000000 10.00000 2.000000 0.000000 1.000000 0.000000 
1.500000 10.00000 2.000000 0.000000 1.000000 0.000000 
2.000000 10.00000 2.000000 0.000000 1.000000 0.000000 
2.500000 10.00000 2.000000 0.000000 1.000000 0.000000 
3.000000 10.00000 2.000000 0.000000 1.000000 0.000000 
3.500000 10.00000 2.000000 0.000000 1.000000 0.000000 
4.000000 10.00000 2.000000 0.000000 1.000000 0.000000 
4.500000 10.00000 2.000000 0.000000 1.000000 0.000000 
5.000000 10.00000 2.000000 0.000000 1.000000 0.000000 
5.500000 10.00000 2.000000 0.000000 1.000000 0.000000 
6.000000 10.00000 2.000000 0.000000 1.000000 0.000000 
6.500000 10.00000 2.000000 0.000000 1.000000 0.000000 
7.000000 10.00000 2.000000 0.000000 1.000000 0.000000 
7.500000 10.00000 2.000000 0.000000 1.000000 0.000000 
8.000000 10.00000 2.000000 0.000000 1.000000 0.000000 
8.500000 10.00000 2.000000 0.000000 1.000000 0.000000 
9.000000 10.00000 2.000000 0.000000 1.000000 0.000000 
9.500000 10.00000 2.000000 0.000000 1.000000 0.000000 
10.00000 10.00000 2.000000 0.000000 1.000000 0.000000 
0.000000 10.00000 2.500000 0.000000 1.000000 0.000000 
0.5000000 10.00000 2.500000 0.000000 1.000000 0.000000 
1.000000 10.00000 2.500000 0.000000 1.000000 0.000000 
1.500000 10.00000 2.500000 0.000000 1.000000 0.000000 
2.000000 10.00000 2.500000 0.000000 1.000000 0.000000 
2.500000 10.00000 2.500000 0.000000 1.000000 0.000000 
3.000000 10.00000 2.500000 0.000000 1.000000 0.000000 
3.500000 10.00000 2.500000 0.000000 1.000000 0.000000 
4.000000 10.00000 2.500000 0.000000 1.000000 0.000000 
4.500000 10.00000 2.500000 0.000000 1.000000 0.000000 
5.000000 10.00000 2.500000 0.000000 1.000000 0.000000 
5.500000 10.00000 2.500000 0.000000 1.000000 0.000000 
6.000000 10.00000 2.500000 0.000000 1.000000 0.000000 
6.500000 10.00000 2.500000 0.000000 1.000000 0.000000 
7.000000 10.00000 2.500000 0.000000 1.000000 0.000000 
7.500000 10.00000 2.500000 0.000000 1.000000 0.000000 
8.000000 10.00000 2.500000 0.000000 1.000000 0.000000 
8.500000 10.00000 2.500000 0.000000 1.000000 0.000000 
9.000000 10.00000 2.500000 0.000000 1.000000 0.000000 
9.500000 10.00000 2.500000 0.000000 1.000000 0.000000 
10.00000 10.00000 2.500000 0.000000 1.000000 0.000000 
0.000000 10.00000 3.000000 0.000000 1.000000 0.000000 
0.5000000 10.00000 3.000000 0.000000 1.000000 0.000000 
1.000000 10.00000 3.000000 0.000000 1.000000 0.000000 
1.500000 10.00000 3.000000 0.000000 1.000000 0.000000 
2.000000 10.00000 3.000000 0.000000 1.000000 0.000000 
2.500000 10.00000 3.000000 0.000000 1.000000 0.000000 
3.000000 10.00000 3.000000 0.000000 1.000000 0.000000 
3.500000 10.00000 3.000000 0.000000 1.000000 0.000000 
4.000000 10.00000 3.000000 0.000000 1.000000 0.000000 
4.500000 10.00000 3.000000 0.000000 1.000000 0.000000 
5.000000 10.00000 3.000000 0.000000 1.000000 0.000000 
5.500000 10.00000 3.000000 0.000000 1.000000 0.000000 
6.000000 10.00000 3.000000 0.000000 1.000000 0.000000 
6.500000 10.00000 3.000000 0.000000 1.000000 0.000000 
7.000000 10.00000 3.000000 0.000000 1.000000 0.000000 
7.500000 10.00000 3.000000 0.000000 1.000000 0.000000 
8.000000 10.00000 3.000000 0.000000 1.000000 0.000000 
8.500000 10.00000 3.000000 0.000000 1.000000 0.000000 
9.000000 10.00000 3.000000 0.000000 1.000000 0.000000 
9.500000 10.00000 3.000000 0.000000 1.000000 0.000000 
10.00000 10.00000 3.000000 0.000000 1.000000 0.000000 
0.000000 10.00000 3.500000 0.000000 1.000000 0.000000 
0.5000000 10.00000 3.500000 0.000000 1.000000 0.000000 
1.000000 10.00000 3.500000 0.000000 1.000000 0.000000 
1.500000 10.00000 3.500000 0.000000 1.000000 0.000000 
2.000000 10.00000 3.500000 0.000000 1.000000 0.000000 
2.500000 10.00000 3.500000 0.000000 1.000000 0.000000 
3.000000 10.00000 3.500000 0.000000 1.000000 0.000000 
3.500000 10.00000 3.500000 0.000000 1.000000 0.000000 
4.000000 10.00000 3.500000 0.000000 1.000000 0.000000 
4.500000 10.00000 3.500000 0.000000 1.000000 0.000000 
5.000000 10.00000 3.500000 0.000000 1.000000 0.000000 
5.500000 10.00000 3.500000 0.000000 1.000000 0.000000 
6.000000 10.00000 3.500000 0.000000 1.000000 0.000000 
6.500000 10.00000 3.500000 0.000000 1.000000 0.000000 
7.000000 10.00000 3.500000 0.000000 1.000000 0.000000 
7.500000 10.00000 3.500000 0.000000 1.000000 0.000000 
8.000000 10.00000 3.500000 0.000000 1.000000 0.000000 
8.500000 10.00000 3.500000 0.000000 1.000000 0.000000 
9.000000 10.00000 3.500000 0.000000 1.000000 0.000000 
9.500000 10.00000 3.500000 0.000000 1.000000 0.000000 
10.00000 10.00000 3.500000 0.000000 1.000000 0.000000 
0.000000 10.00000 4.000000 0.000000 1.000000 0.000000 
0.5000000 10.00000 4.000000 0.000000 1.000000 0.000000 
1.000000 10.00000 4.000000 0.000000 1.000000 0.000000 
1.500000 10.00000 4.000000 0.000000 1.000000 0.000000 
2.000000 10.00000 4.000000 0.000000 1.000000 0.000000 
2.500000 10.00000 4.000000 0.000000 1.000000 0.000000 
3.000000 10.00000 4.000000 0.000000 1.000000 0.000000 
3.500000 10.00000 4.000000 0.000000 1.000000 0.000000 
4.000000 10.00000 4.000000 0.000000 1.000000 0.000000 
4.500000 10.00000 4.000000 0.000000 1.000000 0.000000 
5.000000 10.00000 4.000000 0.000000 1.000000 0.000000 
5.500000 10.00000 4.000000 0.000000 1.000000 0.000000 
6.000000 10.00000 4.000000 0.000000 1.000000 0.000000 
6.500000 10.00000 4.000000 0.000000 1.000000 0.000000 
7.000000 10.00000 4.000000 0.000000 1.000000 0.000000 
7.500000 10.00000 4.000000 0.000000 1.000000 0.000000 
8.000000 10.00000 4.000000 0.000000 1.000000 0.000000 
8.500000 10.00000 4.000000 0.000000 1.000000 0.000000 
9.000000 10.00000 4.000000 0.000000 1.000000 0.000000 
9.500000 10.00000 4.000000 0.000000 1.000000 0.000000 
10.00000 10.00000 4.000000 0.000000 1.000000 0.000000 
0.000000 10.00000 4.500000 0.000000 1.000000 0.000000 
0.5000000 10.00000 4.500000 0.000000 1.000000 0.000000 
1.000000 10.00000 4.500000 0.000000 1.000000 0.000000 
1.500000 10.00000 4.500000 0.000000 1.000000 0.000000 
2.000000 10.00000 4.500000 0.000000 1.000000 0.000000 
2.500000 10.00000 4.500000 0.000000 1.000000 0.000000 
3.000000 10.00000 4.500000 0.000000 1.000000 0.000000 
3.500000 10.00000 4.500000 0.000000 1.000000 0.000000 
4.000000 10.00000 4.500000 0.000000 1.000000 0.000000 
4.500000 10.00000 4.500000 0.000000 1.000000 0.000000 
5.000000 10.00000 4.500000 0.000000 1.000000 0.000000 
5.500000 10.00000 4.500000 0.000000 1.000000 0.000000 
6.000000 10.00000 4.500000 0.000000 1.000000 0.000000 
6.500000 10.00000 4.500000 0.000000 1.000000 0.000000 
7.000000 10.00000 4.500000 0.000000 1.000000 0.000000 
7.500000 10.00000 4.500000 0.000000 1.000000 0.000000 
8.000000 10.00000 4.500000 0.000000 1.000000 0.000000 
8.500000 10.00000 4.500000 0.000000 1.000000 0.000000 
9.000000 10.00000 4.500000 0.000000 1.000000 0.000000 
9.500000 10.00000 4.500000 0.000000 1.000000 0.000000 
10.00000 10.00000 4.500000 0.000000 1.000000 0.000000 
0.000000 10.00000 5.000000 0.000000 1.000000 0.000000 
0.5000000 10.00000 5.000000 0.000000 1.000000 0.000000 
1.000000 10.00000 5.000000 0.000000 1.000000 0.000000 
1.500000 10.00000 5.000000 0.000000 1.000000 0.000000 
2.000000 10.00000 5.000000 0.000000 1.000000 0.000000 
2.500000 10.00000 5.000000 0.000000 1.000000 0.000000 
3.000000 10.00000 5.000000 0.000000 1.000000 0.000000 
3.500000 10.00000 5.000000 0.000000 1.000000 0.000000 
4.000000 10.00000 5.000000 0.000000 1.000000 0.000000 
4.500000 10.00000 5.000000 0.000000 1.000000 0.000000 
5.000000 10.00000 5.000000 0.000000 1.000000 0.000000 
5.500000 10.00000 5.000000 0.000000 1.000000 0.000000 
6.000000 10.00000 5.000000 0.000000 1.000000 0.000000 
6.500000 10.00000 5.000000 0.000000 1.000000 0.000000 
7.000000 10.00000 5.000000 0.000000 1.000000 0.000000 
7.500000 10.00000 5.000000 0.000000 1.000000 0.000000 
8.000000 10.00000 5.000000 0.000000 1.000000 0.000000 
8.500000 10.00000 5.000000 0.000000 1.000000 0.000000 
9.000000 10.00000 5.000000 0.000000 1.000000 0.000000 
9.500000 10.00000 5.000000 0.000000 1.000000 0.000000 
10.00000 10.00000 5.000000 0.000000 1.000000 0.000000 
0.000000 10.00000 5.500000 0.000000 1.000000 0.000000 
0.5000000 10.00000 5.500000 0.000000 1.000000 0.000000 
1.000000 10.00000 5.500000 0.000000 1.000000 0.000000 
1.500000 10.00000 5.500000 0.000000 1.000000 0.000000 
2.000000 10.00000 5.500000 0.000000 1.000000 0.000000 
2.500000 10.00000 5.500000 0.000000 1.000000 0.000000 
3.000000 10.00000 5.500000 0.000000 1.000000 0.000000 
3.500000 10.00000 5.500000 0.000000 1.000000 0.000000 
4.000000 10.00000 5.500000 0.000000 1.000000 0.000000 
4.500000 10.00000 5.500000 0.000000 1.000000 0.000000 
5.000000 10.00000 5.500000 0.000000 1.000000 0.000000 
5.500000 10.00000 5.500000 0.000000 1.000000 0.000000 
6.000000 10.00000 5.500000 0.000000 1.000000 0.000000 
6.500000 10.00000 5.500000 0.000000 1.000000 0.000000 
7.000000 10.00000 5.500000 0.000000 1.000000 0.000000 
7.500000 10.00000 5.500000 0.000000 1.000000 0.000000 
8.000000 10.00000 5.500000 0.000000 1.000000 0.000000 
8.500000 10.00000 5.500000 0.000000 1.000000 0.000000 
9.000000 10.00000 5.500000 0.000000 1.000000 0.000000 
9.500000 10.00000 5.500000 0.000000 1.000000 0.000000 
10.00000 10.00000 5.500000 0.000000 1.000000 0.000000 
0.000000 10.00000 6.000000 0.000000 1.000000 0.000000 
0.5000000 10.00000 6.000000 0.000000 1.000000 0.000000 
1.000000 10.00000 6.000000 0.000000 1.000000 0.000000 
1.500000 10.00000 6.000000 0.000000 1.000000 0.000000 
2.000000 10.00000 6.000000 0.000000 1.000000 0.000000 
2.500000 10.00000 6.000000 0.000000 1.000000 0.000000 
3.000000 10.00000 6.000000 0.000000 1.000000 0.000000 
3.500000 10.00000 6.000000 0.000000 1.000000 0.000000 
4.000000 10.00000 6.000000 0.000000 1.000000 0.000000 
4.500000 10.00000 6.000000 0.000000 1.000000 0.000000 
5.000000 10.00000 6.000000 0.000000 1.000000 0.000000 
5.500000 10.00000 6.000000 0.000000 1.000000 0.000000 
6.000000 10.00000 6.000000 0.000000 1.000000 0.000000 
6.500000 10.00000 6.000000 0.000000 1.000000 0.000000 
7.000000 10.00000 6.000000 0.000000 1.000000 0.000000 
7.500000 10.00000 6.000000 0.000000 1.000000 0.000000 
8.000000 10.00000 6.000000 0.000000 1.000000 0.000000 
8.500000 10.00000 6.000000 0.000000 1.000000 0.000000 
9.000000 10.00000 6.000000 0.000000 1.000000 0.000000 
9.500000 10.00000 6.000000 0.000000 1.000000 0.000000 
10.00000 10.00000 6.000000 0.000000 1.000000 0.000000 
0.000000 10.00000 6.500000 0.000000 1.000000 0.000000 
0.5000000 10.00000 6.500000 0.000000 1.000000 0.000000 
1.000000 10.00000 6.500000 0.000000 1.000000 0.000000 
1.500000 10.00000 6.500000 0.000000 1.000000 0.000000 
2.000000 10.00000 6.500000 0.000000 1.000000 0.000000 
2.500000 10.00000 6.500000 0.000000 1.000000 0.000000 
3.000000 10.00000 6.500000 0.000000 1.000000 0.000000 
3.500000 10.00000 6.500000 0.000000 1.000000 0.000000 
4.000000 10.00000 6.500000 0.000000 1.000000 0.000000 
4.500000 10.00000 6.500000 0.000000 1.000000 0.000000 
5.000000 10.00000 6.500000 0.000000 1.000000 0.000000 
5.500000 10.00000 6.500000 0.000000 1.000000 0.000000 
6.000000 10.00000 6.500000 0.000000 1.000000 0.000000 
6.500000 10.00000 6.500000 0.000000 1.000000 0.000000 
7.000000 10.00000 6.500000 0.000000 1.000000 0.000000 
7.500000 10.00000 6.500000 0.000000 1.000000 0.000000 
8.000000 10.00000 6.500000 0.000000 1.000000 0.000000 
8.500000 10.00000 6.500000 0.000000 1.000000 0.000000 
9.000000 10.00000 6.500000 0.000000 1.000000 0.000000 
9.500000 10.00000 6.500000 0.000000 1.000000 0.000000 
10.00000 10.00000 6.500000 0.000000 1.000000 0.000000 
0.000000 10.00000 7.000000 0.000000 1.000000 0.000000 
0.5000000 10.00000 7.000000 0.000000 1.000000 0.000000 
1.000000 10.00000 7.000000 0.000000 1.000000 0.000000 
1.500000 10.00000 7.000000 0.000000 1.000000 0.000000 
2.000000 10.00000 7.000000 0.000000 1.000000 0.000000 
2.500000 10.00000 7.000000 0.000000 1.000000 0.000000 
3.000000 10.00000 7.000000 0.000000 1.000000 0.000000 
3.500000 10.00000 7.000000 0.000000 1.000000 0.000000 
4.000000 10.00000 7.000000 0.000000 1.000000 0.000000 
4.500000 10.00000 7.000000 0.000000 1.000000 0.000000 
5.000000 10.00000 7.000000 0.000000 1.000000 0.000000 
5.500000 10.00000 7.000000 0.000000 1.000000 0.000000 
6.000000 10.00000 7.000000 0.000000 1.000000 0.000000 
6.500000 10.00000 7.000000 0.000000 1.000000 0.000000 
7.000000 10.00000 7.000000 0.000000 1.000000 0.000000 
7.500000 10.00000 7.000000 0.000000 1.000000 0.000000 
8.000000 10.00000 7.000000 0.000000 1.000000 0.000000 
8.500000 10.00000 7.000000 0.000000 1.000000 0.000000 
9.000000 10.00000 7.000000 0.000000 1.000000 0.000000 
9.500000 10.00000 7.000000 0.000000 1.000000 0.000000 
10.00000 10.00000 7.000000 0.000000 1.000000 0.000000 
0.000000 10.00000 7.500000 0.000000 1.000000 0.000000 
0.5000000 10.00000 7.500000 0.000000 1.000000 0.000000 
1.000000 10.00000 7.500000 0.000000 1.000000 0.000000 
1.500000 10.00000 7.500000 0.000000 1.000000 0.000000 
2.000000 10.00000 7.500000 0.000000 1.000000 0.000000 
2.500000 10.00000 7.500000 0.000000 1.000000 0.000000 
3.000000 10.00000 7.500000 0.000000 1.000000 0.000000 
3.500000 10.00000 7.500000 0.000000 1.000000 0.000000 
4.000000 10.00000 7.500000 0.000000 1.000000 0.000000 
4.500000 10.00000 7.500000 0.000000 1.000000 0.000000 
5.000000 10.00000 7.500000 0.000000 1.000000 0.000000 
5.500000 10.00000 7.500000 0.000000 1.000000 0.000000 
6.000000 10.00000 7.500000 0.000000 1.000000 0.000000 
6.500000 10.00000 7.500000 0.000000 1.000000 0.000000 
7.000000 10.00000 7.500000 0.000000 1.000000 0.000000 
7.500000 10.00000 7.500000 0.000000 1.000000 0.000000 
8.000000 10.00000 7.500000 0.000000 1.000000 0.000000 
8.500000 10.00000 7.500000 0.000000 1.000000 0.000000 
9.000000 10.00000 7.500000 0.000000 1.000000 0.000000 
9.500000 10.00000 7.500000 0.000000 1.000000 0.000000 
10.00000 10.00000 7.500000 0.000000 1.000000 0.000000 
0.000000 10.00000 8.000000 0.000000 1.000000 0.000000 
0.5000000 10.00000 8.000000 0.000000 1.000000 0.000000 
1.000000 10.00000 8.000000 0.000000 1.000000 0.000000 
1.500000 10.00000 8.000000 0.000000 1.000000 0.000000 
2.000000 10.00000 8.000000 0.000000 1.000000 0.000000 
2.500000 10.00000 8.000000 0.000000 1.000000 0.000000 
3.000000 10.00000 8.000000 0.000000 1.000000 0.000000 
3.500000 10.00000 8.000000 0.000000 1.000000 0.000000 
4.000000 10.00000 8.000000 0.000000 1.000000 0.000000 
4.500000 10.00000 8.000000 0.000000 1.000000 0.000000 
5.000000 10.00000 8.000000 0.000000 1.000000 0.000000 
5.500000 10.00000 8.000000 0.000000 1.000000 0.000000 
6.000000 10.00000 8.000000 0.000000 1.000000 0.000000 
6.500000 10.00000 8.000000 0.000000 1.000000 0.000000 
7.000000 10.00000 8.000000 0.000000 1.000000 0.000000 
7.500000 10.00000 8.000000 0.000000 1.000000 0.000000 
8.000000 10.00000 8.000000 0.000000 1.000000 0.000000 
8.500000 10.00000 8.000000 0.000000 1.000000 0.000000 
9.000000 10.00000 8.000000 0.000000 1.000000 0.000000 
9.500000 10.00000 8.000000 0.000000 1.000000 0.000000 
10.00000 10.00000 8.000000 0.000000 1.000000 0.000000 
0.000000 10.00000 8.500000 0.000000 1.000000 0.000000 
0.5000000 10.00000 8.500000 0.000000 1.000000 0.000000 
1.000000 10.00000 8.500000 0.000000 1.000000 0.000000 
1.500000 10.00000 8.500000 0.000000 1.000000 0.000000 
2.000000 10.00000 8.500000 0.000000 1.000000 0.000000 
2.500000 10.00000 8.500000 0.000000 1.000000 0.000000 
3.000000 10.00000 8.500000 0.000000 1.000000 0.000000 
3.500000 10.00000 8.500000 0.000000 1.000000 0.000000 
4.000000 10.00000 8.500000 0.000000 1.000000 0.000000 
4.500000 10.00000 8.500000 0.000000 1.000000 0.000000 
5.000000 10.00000 8.500000 0.000000 1.000000 0.000000 
5.500000 10.00000 8.500000 0.000000 1.000000 0.000000 
6.000000 10.00000 8.500000 0.000000 1.000000 0.000000 
6.500000 10.00000 8.500000 0.000000 1.000000 0.000000 
7.000000 10.00000 8.500000 0.000000 1.000000 0.000000 
7.500000 10.00000 8.500000 0.000000 1.000000 0.000000 
8.000000 10.00000 8.500000 0.000000 1.000000 0.000000 
8.500000 10.00000 8.500000 0.000000 1.000000 0.000000 
9.000000 10.00000 8.500000 0.000000 1.000000 0.000000 
9.500000 10.00000 8.500000 0.000000 1.000000 0.000000 
10.00000 10.00000 8.500000 0.000000 1.000000 0.000000 
