# .PCD v0.7 - Point Cloud Data file format
VERSION 0.7
FIELDS x y z normal_x normal_y normal_z
SIZE 4 4 4 4 4 4
TYPE F F F F F F
COUNT 1 1 1 1 1 1
WIDTH 803
HEIGHT 1
VIEWPOINT 0 0 0 1 0 0 0
POINTS 803
DATA ascii
5.602890 11.07199 13.13903 0.5254314 0.1204705 0.8422641 
5.706793 11.54288 13.00686 0.5254314 0.1204705 0.8422641 
5.810696 12.01377 12.87469 0.5254314 0.1204705 0.8422641 
4.145164 2.439057 15.28319 0.5254314 0.1204705 0.8422641 
4.249067 2.909944 15.15102 0.5254314 0.1204705 0.8422641 
4.352970 3.380832 15.01885 0.5254314 0.1204705 0.8422641 
4.456873 3.851720 14.88668 0.5254314 0.1204705 0.8422641 
4.560777 4.322607 14.75451 0.5254314 0.1204705 0.8422641 
4.664680 4.793495 14.62234 0.5254314 0.1204705 0.8422641 
4.768583 5.264382 14.49017 0.5254314 0.1204705 0.8422641 
4.872487 5.735270 14.35800 0.5254314 0.1204705 0.8422641 
4.976390 6.206158 14.22583 0.5254314 0.1204705 0.8422641 
5.807617 9.973259 13.16847 0.5254314 0.1204705 0.8422641 
5.911520 10.44415 13.03630 0.5254314 0.1204705 0.8422641 
6.015424 10.91503 12.90413 0.5254314 0.1204705 0.8422641 
6.119327 11.38592 12.77196 0.5254314 0.1204705 0.8422641 
6.223230 11.85681 12.63979 0.5254314 0.1204705 0.8422641 
4.557698 2.282096 15.04829 0.5254314 0.1204705 0.8422641 
4.661601 2.752984 14.91612 0.5254314 0.1204705 0.8422641 
4.765504 3.223872 14.78395 0.5254314 0.1204705 0.8422641 
4.869408 3.694759 14.65178 0.5254314 0.1204705 0.8422641 
4.973311 4.165647 14.51961 0.5254314 0.1204705 0.8422641 
5.077215 4.636534 14.38744 0.5254314 0.1204705 0.8422641 
5.181118 5.107422 14.25527 0.5254314 0.1204705 0.8422641 
5.285021 5.578310 14.12310 0.5254314 0.1204705 0.8422641 
5.388925 6.049197 13.99093 0.5254314 0.1204705 0.8422641 
5.492828 6.520085 13.85876 0.5254314 0.1204705 0.8422641 
6.220151 9.816298 12.93357 0.5254314 0.1204705 0.8422641 
6.324055 10.28719 12.80140 0.5254314 0.1204705 0.8422641 
6.427958 10.75807 12.66922 0.5254314 0.1204705 0.8422641 
6.531861 11.22896 12.53706 0.5254314 0.1204705 0.8422641 
6.635765 11.69985 12.40488 0.5254314 0.1204705 0.8422641 
4.970232 2.125136 14.81339 0.5254314 0.1204705 0.8422641 
5.074135 2.596024 14.68122 0.5254314 0.1204705 0.8422641 
5.178039 3.066911 14.54905 0.5254314 0.1204705 0.8422641 
5.281942 3.537799 14.41687 0.5254314 0.1204705 0.8422641 
5.385846 4.008687 14.28471 0.5254314 0.1204705 0.8422641 
5.489749 4.479574 14.15254 0.5254314 0.1204705 0.8422641 
5.593652 4.950462 14.02036 0.5254314 0.1204705 0.8422641 
5.697556 5.421350 13.88820 0.5254314 0.1204705 0.8422641 
5.801459 5.892237 13.75602 0.5254314 0.1204705 0.8422641 
5.905362 6.363124 13.62385 0.5254314 0.1204705 0.8422641 
6.009265 6.834012 13.49168 0.5254314 0.1204705 0.8422641 
6.528782 9.188450 12.83083 0.5254314 0.1204705 0.8422641 
6.632686 9.659338 12.69866 0.5254314 0.1204705 0.8422641 
6.736589 10.13023 12.56649 0.5254314 0.1204705 0.8422641 
6.840492 10.60111 12.43432 0.5254314 0.1204705 0.8422641 
6.944396 11.07200 12.30215 0.5254314 0.1204705 0.8422641 
7.048299 11.54289 12.16998 0.5254314 0.1204705 0.8422641 
5.382766 1.968176 14.57848 0.5254314 0.1204705 0.8422641 
5.486670 2.439063 14.44631 0.5254314 0.1204705 0.8422641 
5.590573 2.909951 14.31414 0.5254314 0.1204705 0.8422641 
5.694477 3.380838 14.18197 0.5254314 0.1204705 0.8422641 
5.798380 3.851726 14.04980 0.5254314 0.1204705 0.8422641 
5.902283 4.322614 13.91763 0.5254314 0.1204705 0.8422641 
6.006186 4.793501 13.78546 0.5254314 0.1204705 0.8422641 
6.110090 5.264389 13.65329 0.5254314 0.1204705 0.8422641 
6.213993 5.735277 13.52112 0.5254314 0.1204705 0.8422641 
6.317896 6.206164 13.38895 0.5254314 0.1204705 0.8422641 
6.421800 6.677052 13.25678 0.5254314 0.1204705 0.8422641 
6.525703 7.147939 13.12461 0.5254314 0.1204705 0.8422641 
6.629607 7.618827 12.99244 0.5254314 0.1204705 0.8422641 
6.733510 8.089715 12.86027 0.5254314 0.1204705 0.8422641 
6.837413 8.560602 12.72810 0.5254314 0.1204705 0.8422641 
6.941317 9.031489 12.59593 0.5254314 0.1204705 0.8422641 
7.045220 9.502378 12.46376 0.5254314 0.1204705 0.8422641 
7.149123 9.973265 12.33159 0.5254314 0.1204705 0.8422641 
7.253026 10.44415 12.19942 0.5254314 0.1204705 0.8422641 
7.356930 10.91504 12.06725 0.5254314 0.1204705 0.8422641 
7.460834 11.38593 11.93508 0.5254314 0.1204705 0.8422641 
5.795300 1.811215 14.34358 0.5254314 0.1204705 0.8422641 
5.899204 2.282103 14.21141 0.5254314 0.1204705 0.8422641 
6.003108 2.752990 14.07924 0.5254314 0.1204705 0.8422641 
6.107011 3.223878 13.94707 0.5254314 0.1204705 0.8422641 
6.210914 3.694766 13.81490 0.5254314 0.1204705 0.8422641 
6.314817 4.165653 13.68273 0.5254314 0.1204705 0.8422641 
6.418721 4.636541 13.55056 0.5254314 0.1204705 0.8422641 
6.522624 5.107429 13.41839 0.5254314 0.1204705 0.8422641 
6.626527 5.578316 13.28622 0.5254314 0.1204705 0.8422641 
6.730431 6.049204 13.15405 0.5254314 0.1204705 0.8422641 
6.834334 6.520092 13.02188 0.5254314 0.1204705 0.8422641 
6.938238 6.990979 12.88971 0.5254314 0.1204705 0.8422641 
7.042141 7.461866 12.75754 0.5254314 0.1204705 0.8422641 
7.146044 7.932754 12.62537 0.5254314 0.1204705 0.8422641 
7.249948 8.403642 12.49320 0.5254314 0.1204705 0.8422641 
7.353851 8.874530 12.36103 0.5254314 0.1204705 0.8422641 
7.457754 9.345417 12.22886 0.5254314 0.1204705 0.8422641 
7.561657 9.816304 12.09669 0.5254314 0.1204705 0.8422641 
7.665561 10.28719 11.96452 0.5254314 0.1204705 0.8422641 
7.769464 10.75808 11.83235 0.5254314 0.1204705 0.8422641 
7.873368 11.22897 11.70018 0.5254314 0.1204705 0.8422641 
6.207835 1.654255 14.10868 0.5254314 0.1204705 0.8422641 
6.311738 2.125142 13.97651 0.5254314 0.1204705 0.8422641 
6.415642 2.596030 13.84434 0.5254314 0.1204705 0.8422641 
6.519545 3.066918 13.71217 0.5254314 0.1204705 0.8422641 
6.623448 3.537805 13.58000 0.5254314 0.1204705 0.8422641 
6.727352 4.008693 13.44783 0.5254314 0.1204705 0.8422641 
6.831255 4.479580 13.31566 0.5254314 0.1204705 0.8422641 
6.935158 4.950468 13.18349 0.5254314 0.1204705 0.8422641 
7.039062 5.421356 13.05132 0.5254314 0.1204705 0.8422641 
7.142965 5.892243 12.91915 0.5254314 0.1204705 0.8422641 
7.246869 6.363131 12.78698 0.5254314 0.1204705 0.8422641 
7.350772 6.834019 12.65481 0.5254314 0.1204705 0.8422641 
7.454675 7.304906 12.52264 0.5254314 0.1204705 0.8422641 
7.558578 7.775794 12.39047 0.5254314 0.1204705 0.8422641 
7.662482 8.246681 12.25830 0.5254314 0.1204705 0.8422641 
7.766385 8.717569 12.12613 0.5254314 0.1204705 0.8422641 
7.870288 9.188457 11.99396 0.5254314 0.1204705 0.8422641 
7.974192 9.659345 11.86179 0.5254314 0.1204705 0.8422641 
8.078095 10.13023 11.72962 0.5254314 0.1204705 0.8422641 
8.181998 10.60112 11.59745 0.5254314 0.1204705 0.8422641 
8.285902 11.07201 11.46528 0.5254314 0.1204705 0.8422641 
6.620369 1.497294 13.87378 0.5254314 0.1204705 0.8422641 
6.724273 1.968182 13.74161 0.5254314 0.1204705 0.8422641 
6.828176 2.439070 13.60944 0.5254314 0.1204705 0.8422641 
6.932079 2.909957 13.47727 0.5254314 0.1204705 0.8422641 
7.035983 3.380845 13.34510 0.5254314 0.1204705 0.8422641 
7.139886 3.851732 13.21293 0.5254314 0.1204705 0.8422641 
7.243789 4.322620 13.08076 0.5254314 0.1204705 0.8422641 
7.347693 4.793508 12.94859 0.5254314 0.1204705 0.8422641 
7.451596 5.264395 12.81642 0.5254314 0.1204705 0.8422641 
7.555500 5.735283 12.68425 0.5254314 0.1204705 0.8422641 
7.659403 6.206171 12.55208 0.5254314 0.1204705 0.8422641 
7.763306 6.677058 12.41991 0.5254314 0.1204705 0.8422641 
7.867209 7.147946 12.28774 0.5254314 0.1204705 0.8422641 
7.971113 7.618834 12.15557 0.5254314 0.1204705 0.8422641 
8.075016 8.089721 12.02340 0.5254314 0.1204705 0.8422641 
8.178920 8.560609 11.89123 0.5254314 0.1204705 0.8422641 
8.282823 9.031496 11.75906 0.5254314 0.1204705 0.8422641 
8.386726 9.502384 11.62689 0.5254314 0.1204705 0.8422641 
8.490629 9.973271 11.49472 0.5254314 0.1204705 0.8422641 
8.594533 10.44416 11.36255 0.5254314 0.1204705 0.8422641 
8.698437 10.91505 11.23038 0.5254314 0.1204705 0.8422641 
7.032904 1.340334 13.63888 0.5254314 0.1204705 0.8422641 
7.136807 1.811222 13.50671 0.5254314 0.1204705 0.8422641 
7.240710 2.282109 13.37454 0.5254314 0.1204705 0.8422641 
7.344614 2.752997 13.24237 0.5254314 0.1204705 0.8422641 
7.448517 3.223885 13.11020 0.5254314 0.1204705 0.8422641 
7.552421 3.694772 12.97803 0.5254314 0.1204705 0.8422641 
7.656324 4.165660 12.84586 0.5254314 0.1204705 0.8422641 
7.760227 4.636548 12.71369 0.5254314 0.1204705 0.8422641 
7.864130 5.107435 12.58152 0.5254314 0.1204705 0.8422641 
7.968034 5.578322 12.44935 0.5254314 0.1204705 0.8422641 
8.071938 6.049210 12.31717 0.5254314 0.1204705 0.8422641 
8.175840 6.520098 12.18501 0.5254314 0.1204705 0.8422641 
8.279744 6.990985 12.05283 0.5254314 0.1204705 0.8422641 
8.383647 7.461873 11.92066 0.5254314 0.1204705 0.8422641 
8.487551 7.932761 11.78850 0.5254314 0.1204705 0.8422641 
8.591454 8.403648 11.65632 0.5254314 0.1204705 0.8422641 
8.695357 8.874536 11.52415 0.5254314 0.1204705 0.8422641 
8.799260 9.345424 11.39198 0.5254314 0.1204705 0.8422641 
8.903164 9.816311 11.25981 0.5254314 0.1204705 0.8422641 
9.007068 10.28720 11.12764 0.5254314 0.1204705 0.8422641 
9.110970 10.75809 10.99547 0.5254314 0.1204705 0.8422641 
7.445438 1.183374 13.40397 0.5254314 0.1204705 0.8422641 
7.549341 1.654261 13.27180 0.5254314 0.1204705 0.8422641 
7.653244 2.125149 13.13963 0.5254314 0.1204705 0.8422641 
7.757148 2.596036 13.00746 0.5254314 0.1204705 0.8422641 
7.861052 3.066924 12.87529 0.5254314 0.1204705 0.8422641 
7.964955 3.537812 12.74312 0.5254314 0.1204705 0.8422641 
8.068858 4.008699 12.61095 0.5254314 0.1204705 0.8422641 
8.172761 4.479587 12.47878 0.5254314 0.1204705 0.8422641 
8.276665 4.950475 12.34661 0.5254314 0.1204705 0.8422641 
8.380569 5.421362 12.21444 0.5254314 0.1204705 0.8422641 
8.484471 5.892250 12.08227 0.5254314 0.1204705 0.8422641 
8.588375 6.363137 11.95010 0.5254314 0.1204705 0.8422641 
8.692278 6.834025 11.81793 0.5254314 0.1204705 0.8422641 
8.796182 7.304913 11.68576 0.5254314 0.1204705 0.8422641 
8.900084 7.775800 11.55359 0.5254314 0.1204705 0.8422641 
9.003988 8.246688 11.42142 0.5254314 0.1204705 0.8422641 
9.107891 8.717575 11.28925 0.5254314 0.1204705 0.8422641 
9.211795 9.188463 11.15708 0.5254314 0.1204705 0.8422641 
9.315699 9.659350 11.02491 0.5254314 0.1204705 0.8422641 
9.419601 10.13024 10.89274 0.5254314 0.1204705 0.8422641 
9.523505 10.60113 10.76057 0.5254314 0.1204705 0.8422641 
7.857972 1.026413 13.16907 0.5254314 0.1204705 0.8422641 
7.961875 1.497301 13.03690 0.5254314 0.1204705 0.8422641 
8.065779 1.968188 12.90473 0.5254314 0.1204705 0.8422641 
8.169683 2.439076 12.77256 0.5254314 0.1204705 0.8422641 
8.273585 2.909964 12.64039 0.5254314 0.1204705 0.8422641 
8.377489 3.380851 12.50822 0.5254314 0.1204705 0.8422641 
8.481392 3.851739 12.37605 0.5254314 0.1204705 0.8422641 
8.585296 4.322627 12.24388 0.5254314 0.1204705 0.8422641 
8.689199 4.793514 12.11171 0.5254314 0.1204705 0.8422641 
8.793102 5.264402 11.97954 0.5254314 0.1204705 0.8422641 
8.897006 5.735290 11.84737 0.5254314 0.1204705 0.8422641 
9.000909 6.206177 11.71520 0.5254314 0.1204705 0.8422641 
9.104813 6.677064 11.58303 0.5254314 0.1204705 0.8422641 
9.208715 7.147952 11.45086 0.5254314 0.1204705 0.8422641 
9.312619 7.618840 11.31869 0.5254314 0.1204705 0.8422641 
9.416522 8.089727 11.18652 0.5254314 0.1204705 0.8422641 
9.520426 8.560616 11.05435 0.5254314 0.1204705 0.8422641 
9.624330 9.031503 10.92218 0.5254314 0.1204705 0.8422641 
9.728232 9.502390 10.79001 0.5254314 0.1204705 0.8422641 
9.832136 9.973278 10.65784 0.5254314 0.1204705 0.8422641 
9.936039 10.44417 10.52567 0.5254314 0.1204705 0.8422641 
8.270507 0.8694528 12.93417 0.5254314 0.1204705 0.8422641 
8.374410 1.340340 12.80200 0.5254314 0.1204705 0.8422641 
8.478313 1.811228 12.66983 0.5254314 0.1204705 0.8422641 
8.582216 2.282116 12.53766 0.5254314 0.1204705 0.8422641 
8.686120 2.753003 12.40549 0.5254314 0.1204705 0.8422641 
8.790024 3.223891 12.27332 0.5254314 0.1204705 0.8422641 
8.893927 3.694778 12.14115 0.5254314 0.1204705 0.8422641 
8.997830 4.165666 12.00898 0.5254314 0.1204705 0.8422641 
9.101733 4.636554 11.87681 0.5254314 0.1204705 0.8422641 
9.205637 5.107441 11.74464 0.5254314 0.1204705 0.8422641 
9.309540 5.578329 11.61247 0.5254314 0.1204705 0.8422641 
9.413444 6.049217 11.48030 0.5254314 0.1204705 0.8422641 
9.517346 6.520104 11.34813 0.5254314 0.1204705 0.8422641 
9.621250 6.990992 11.21596 0.5254314 0.1204705 0.8422641 
9.725154 7.461879 11.08379 0.5254314 0.1204705 0.8422641 
9.829057 7.932767 10.95162 0.5254314 0.1204705 0.8422641 
9.932961 8.403655 10.81945 0.5254314 0.1204705 0.8422641 
10.03686 8.874542 10.68728 0.5254314 0.1204705 0.8422641 
10.14077 9.345430 10.55511 0.5254314 0.1204705 0.8422641 
10.24467 9.816318 10.42294 0.5254314 0.1204705 0.8422641 
10.34857 10.28720 10.29077 0.5254314 0.1204705 0.8422641 
-3.156426 12.22171 6.566164 0.2078067 0.9417753 -0.2643403 
-2.743892 12.06475 6.331263 0.2078067 0.9417753 -0.2643403 
-2.331358 11.90779 6.096361 0.2078067 0.9417753 -0.2643403 
-1.918824 11.75083 5.861459 0.2078067 0.9417753 -0.2643403 
-1.506289 11.59387 5.626557 0.2078067 0.9417753 -0.2643403 
-1.093755 11.43691 5.391655 0.2078067 0.9417753 -0.2643403 
-0.6812207 11.27995 5.156754 0.2078067 0.9417753 -0.2643403 
-0.2686863 11.12298 4.921852 0.2078067 0.9417753 -0.2643403 
0.1438480 10.96602 4.686950 0.2078067 0.9417753 -0.2643403 
0.5563823 10.80906 4.452048 0.2078067 0.9417753 -0.2643403 
0.9689167 10.65210 4.217146 0.2078067 0.9417753 -0.2643403 
1.381451 10.49514 3.982244 0.2078067 0.9417753 -0.2643403 
1.793985 10.33818 3.747343 0.2078067 0.9417753 -0.2643403 
2.206520 10.18122 3.512441 0.2078067 0.9417753 -0.2643403 
2.619054 10.02426 3.277539 0.2078067 0.9417753 -0.2643403 
3.031588 9.867302 3.042637 0.2078067 0.9417753 -0.2643403 
3.444123 9.710341 2.807735 0.2078067 0.9417753 -0.2643403 
3.856657 9.553381 2.572833 0.2078067 0.9417753 -0.2643403 
4.269191 9.396420 2.337931 0.2078067 0.9417753 -0.2643403 
4.681726 9.239460 2.103030 0.2078067 0.9417753 -0.2643403 
5.094260 9.082500 1.868128 0.2078067 0.9417753 -0.2643403 
-2.893711 12.28194 6.987297 0.2078067 0.9417753 -0.2643403 
-2.481177 12.12498 6.752395 0.2078067 0.9417753 -0.2643403 
-2.068642 11.96802 6.517493 0.2078067 0.9417753 -0.2643403 
-1.656108 11.81106 6.282591 0.2078067 0.9417753 -0.2643403 
-1.243574 11.65410 6.047689 0.2078067 0.9417753 -0.2643403 
-0.8310392 11.49714 5.812788 0.2078067 0.9417753 -0.2643403 
-0.4185050 11.34018 5.577886 0.2078067 0.9417753 -0.2643403 
-0.005970623 11.18322 5.342984 0.2078067 0.9417753 -0.2643403 
0.4065637 11.02626 5.108082 0.2078067 0.9417753 -0.2643403 
0.8190980 10.86930 4.873180 0.2078067 0.9417753 -0.2643403 
1.231632 10.71234 4.638278 0.2078067 0.9417753 -0.2643403 
1.644167 10.55538 4.403377 0.2078067 0.9417753 -0.2643403 
2.056701 10.39842 4.168475 0.2078067 0.9417753 -0.2643403 
2.469235 10.24146 3.933573 0.2078067 0.9417753 -0.2643403 
2.881770 10.08450 3.698671 0.2078067 0.9417753 -0.2643403 
3.294304 9.927537 3.463769 0.2078067 0.9417753 -0.2643403 
3.706838 9.770576 3.228867 0.2078067 0.9417753 -0.2643403 
4.119372 9.613616 2.993965 0.2078067 0.9417753 -0.2643403 
4.531907 9.456656 2.759063 0.2078067 0.9417753 -0.2643403 
4.944441 9.299696 2.524162 0.2078067 0.9417753 -0.2643403 
5.356976 9.142735 2.289260 0.2078067 0.9417753 -0.2643403 
-2.630995 12.34218 7.408429 0.2078067 0.9417753 -0.2643403 
-2.218461 12.18522 7.173527 0.2078067 0.9417753 -0.2643403 
-1.805927 12.02826 6.938625 0.2078067 0.9417753 -0.2643403 
-1.393392 11.87130 6.703723 0.2078067 0.9417753 -0.2643403 
-0.9808579 11.71434 6.468821 0.2078067 0.9417753 -0.2643403 
-0.5683236 11.55738 6.233920 0.2078067 0.9417753 -0.2643403 
-0.1557893 11.40042 5.999018 0.2078067 0.9417753 -0.2643403 
0.2567451 11.24346 5.764116 0.2078067 0.9417753 -0.2643403 
0.6692794 11.08650 5.529214 0.2078067 0.9417753 -0.2643403 
1.081814 10.92953 5.294312 0.2078067 0.9417753 -0.2643403 
1.494348 10.77257 5.059410 0.2078067 0.9417753 -0.2643403 
1.906882 10.61561 4.824508 0.2078067 0.9417753 -0.2643403 
2.319417 10.45865 4.589607 0.2078067 0.9417753 -0.2643403 
2.731951 10.30169 4.354705 0.2078067 0.9417753 -0.2643403 
3.144485 10.14473 4.119803 0.2078067 0.9417753 -0.2643403 
3.557020 9.987772 3.884901 0.2078067 0.9417753 -0.2643403 
3.969554 9.830812 3.649999 0.2078067 0.9417753 -0.2643403 
4.382088 9.673852 3.415097 0.2078067 0.9417753 -0.2643403 
4.794622 9.516891 3.180196 0.2078067 0.9417753 -0.2643403 
5.207157 9.359931 2.945294 0.2078067 0.9417753 -0.2643403 
5.619691 9.202971 2.710392 0.2078067 0.9417753 -0.2643403 
-2.368279 12.40241 7.829561 0.2078067 0.9417753 -0.2643403 
-1.955745 12.24545 7.594659 0.2078067 0.9417753 -0.2643403 
-1.543211 12.08849 7.359757 0.2078067 0.9417753 -0.2643403 
-1.130677 11.93153 7.124855 0.2078067 0.9417753 -0.2643403 
-0.7181422 11.77457 6.889953 0.2078067 0.9417753 -0.2643403 
-0.3056079 11.61761 6.655051 0.2078067 0.9417753 -0.2643403 
0.1069264 11.46065 6.420150 0.2078067 0.9417753 -0.2643403 
0.5194607 11.30369 6.185248 0.2078067 0.9417753 -0.2643403 
0.9319951 11.14673 5.950346 0.2078067 0.9417753 -0.2643403 
1.344529 10.98977 5.715444 0.2078067 0.9417753 -0.2643403 
1.757064 10.83281 5.480542 0.2078067 0.9417753 -0.2643403 
2.169598 10.67585 5.245640 0.2078067 0.9417753 -0.2643403 
2.582132 10.51889 5.010738 0.2078067 0.9417753 -0.2643403 
2.994667 10.36193 4.775837 0.2078067 0.9417753 -0.2643403 
3.407201 10.20497 4.540935 0.2078067 0.9417753 -0.2643403 
3.819735 10.04801 4.306033 0.2078067 0.9417753 -0.2643403 
4.232270 9.891047 4.071131 0.2078067 0.9417753 -0.2643403 
4.644804 9.734087 3.836229 0.2078067 0.9417753 -0.2643403 
5.057338 9.577127 3.601327 0.2078067 0.9417753 -0.2643403 
5.469872 9.420166 3.366426 0.2078067 0.9417753 -0.2643403 
5.882407 9.263206 3.131524 0.2078067 0.9417753 -0.2643403 
-2.105564 12.46265 8.250692 0.2078067 0.9417753 -0.2643403 
-1.693029 12.30569 8.015791 0.2078067 0.9417753 -0.2643403 
-1.280495 12.14873 7.780889 0.2078067 0.9417753 -0.2643403 
-0.8679608 11.99177 7.545987 0.2078067 0.9417753 -0.2643403 
-0.4554265 11.83481 7.311085 0.2078067 0.9417753 -0.2643403 
-0.04289220 11.67785 7.076183 0.2078067 0.9417753 -0.2643403 
0.3696421 11.52089 6.841281 0.2078067 0.9417753 -0.2643403 
0.7821764 11.36393 6.606380 0.2078067 0.9417753 -0.2643403 
1.194711 11.20697 6.371478 0.2078067 0.9417753 -0.2643403 
1.607245 11.05000 6.136576 0.2078067 0.9417753 -0.2643403 
2.019779 10.89304 5.901674 0.2078067 0.9417753 -0.2643403 
2.432314 10.73608 5.666772 0.2078067 0.9417753 -0.2643403 
2.844848 10.57912 5.431870 0.2078067 0.9417753 -0.2643403 
3.257382 10.42216 5.196969 0.2078067 0.9417753 -0.2643403 
3.669917 10.26520 4.962067 0.2078067 0.9417753 -0.2643403 
4.082451 10.10824 4.727165 0.2078067 0.9417753 -0.2643403 
4.494985 9.951283 4.492263 0.2078067 0.9417753 -0.2643403 
4.907520 9.794322 4.257361 0.2078067 0.9417753 -0.2643403 
5.320054 9.637362 4.022460 0.2078067 0.9417753 -0.2643403 
5.732588 9.480401 3.787558 0.2078067 0.9417753 -0.2643403 
6.145123 9.323441 3.552656 0.2078067 0.9417753 -0.2643403 
-1.842848 12.52288 8.671824 0.2078067 0.9417753 -0.2643403 
-1.430314 12.36592 8.436923 0.2078067 0.9417753 -0.2643403 
-1.017779 12.20896 8.202021 0.2078067 0.9417753 -0.2643403 
-0.6052451 12.05200 7.967119 0.2078067 0.9417753 -0.2643403 
-0.1927108 11.89504 7.732217 0.2078067 0.9417753 -0.2643403 
0.2198235 11.73808 7.497315 0.2078067 0.9417753 -0.2643403 
0.6323578 11.58112 7.262414 0.2078067 0.9417753 -0.2643403 
1.044892 11.42416 7.027512 0.2078067 0.9417753 -0.2643403 
1.457426 11.26720 6.792610 0.2078067 0.9417753 -0.2643403 
1.869961 11.11024 6.557708 0.2078067 0.9417753 -0.2643403 
2.282495 10.95328 6.322806 0.2078067 0.9417753 -0.2643403 
2.695029 10.79632 6.087904 0.2078067 0.9417753 -0.2643403 
3.107564 10.63936 5.853003 0.2078067 0.9417753 -0.2643403 
3.520098 10.48240 5.618101 0.2078067 0.9417753 -0.2643403 
3.932632 10.32544 5.383199 0.2078067 0.9417753 -0.2643403 
4.345167 10.16848 5.148297 0.2078067 0.9417753 -0.2643403 
4.757701 10.01152 4.913395 0.2078067 0.9417753 -0.2643403 
5.170235 9.854557 4.678493 0.2078067 0.9417753 -0.2643403 
5.582769 9.697597 4.443592 0.2078067 0.9417753 -0.2643403 
5.995304 9.540637 4.208690 0.2078067 0.9417753 -0.2643403 
6.407838 9.383677 3.973788 0.2078067 0.9417753 -0.2643403 
-1.580132 12.58312 9.092957 0.2078067 0.9417753 -0.2643403 
-1.167598 12.42616 8.858055 0.2078067 0.9417753 -0.2643403 
-0.7550638 12.26920 8.623153 0.2078067 0.9417753 -0.2643403 
-0.3425294 12.11224 8.388251 0.2078067 0.9417753 -0.2643403 
0.07000487 11.95528 8.153349 0.2078067 0.9417753 -0.2643403 
0.4825392 11.79832 7.918447 0.2078067 0.9417753 -0.2643403 
0.8950735 11.64136 7.683546 0.2078067 0.9417753 -0.2643403 
1.307608 11.48440 7.448644 0.2078067 0.9417753 -0.2643403 
1.720142 11.32744 7.213742 0.2078067 0.9417753 -0.2643403 
2.132676 11.17048 6.978840 0.2078067 0.9417753 -0.2643403 
2.545211 11.01352 6.743938 0.2078067 0.9417753 -0.2643403 
2.957745 10.85655 6.509037 0.2078067 0.9417753 -0.2643403 
3.370279 10.69959 6.274135 0.2078067 0.9417753 -0.2643403 
3.782814 10.54263 6.039233 0.2078067 0.9417753 -0.2643403 
4.195348 10.38567 5.804331 0.2078067 0.9417753 -0.2643403 
4.607882 10.22871 5.569429 0.2078067 0.9417753 -0.2643403 
5.020417 10.07175 5.334527 0.2078067 0.9417753 -0.2643403 
5.432951 9.914793 5.099626 0.2078067 0.9417753 -0.2643403 
5.845485 9.757833 4.864724 0.2078067 0.9417753 -0.2643403 
6.258019 9.600872 4.629822 0.2078067 0.9417753 -0.2643403 
6.670554 9.443912 4.394920 0.2078067 0.9417753 -0.2643403 
-1.317417 12.64335 9.514089 0.2078067 0.9417753 -0.2643403 
-0.9048824 12.48639 9.279187 0.2078067 0.9417753 -0.2643403 
-0.4923481 12.32943 9.044285 0.2078067 0.9417753 -0.2643403 
-0.07981376 12.17247 8.809383 0.2078067 0.9417753 -0.2643403 
0.3327205 12.01551 8.574481 0.2078067 0.9417753 -0.2643403 
0.7452549 11.85855 8.339580 0.2078067 0.9417753 -0.2643403 
1.157789 11.70159 8.104677 0.2078067 0.9417753 -0.2643403 
1.570323 11.54463 7.869776 0.2078067 0.9417753 -0.2643403 
1.982858 11.38767 7.634874 0.2078067 0.9417753 -0.2643403 
2.395392 11.23071 7.399972 0.2078067 0.9417753 -0.2643403 
2.807926 11.07375 7.165071 0.2078067 0.9417753 -0.2643403 
3.220461 10.91679 6.930169 0.2078067 0.9417753 -0.2643403 
3.632995 10.75983 6.695267 0.2078067 0.9417753 -0.2643403 
4.045529 10.60287 6.460365 0.2078067 0.9417753 -0.2643403 
4.458064 10.44591 6.225463 0.2078067 0.9417753 -0.2643403 
4.870598 10.28895 5.990561 0.2078067 0.9417753 -0.2643403 
5.283133 10.13199 5.755659 0.2078067 0.9417753 -0.2643403 
5.695667 9.975028 5.520758 0.2078067 0.9417753 -0.2643403 
6.108201 9.818068 5.285856 0.2078067 0.9417753 -0.2643403 
6.520735 9.661107 5.050954 0.2078067 0.9417753 -0.2643403 
6.933270 9.504147 4.816052 0.2078067 0.9417753 -0.2643403 
-1.054701 12.70359 9.935221 0.2078067 0.9417753 -0.2643403 
-0.6421667 12.54663 9.700319 0.2078067 0.9417753 -0.2643403 
-0.2296324 12.38967 9.465417 0.2078067 0.9417753 -0.2643403 
0.1829019 12.23271 9.230515 0.2078067 0.9417753 -0.2643403 
0.5954362 12.07575 8.995613 0.2078067 0.9417753 -0.2643403 
1.007971 11.91879 8.760712 0.2078067 0.9417753 -0.2643403 
1.420505 11.76183 8.525809 0.2078067 0.9417753 -0.2643403 
1.833039 11.60487 8.290908 0.2078067 0.9417753 -0.2643403 
2.245574 11.44791 8.056006 0.2078067 0.9417753 -0.2643403 
2.658108 11.29095 7.821104 0.2078067 0.9417753 -0.2643403 
3.070642 11.13399 7.586202 0.2078067 0.9417753 -0.2643403 
3.483176 10.97703 7.351301 0.2078067 0.9417753 -0.2643403 
3.895711 10.82007 7.116399 0.2078067 0.9417753 -0.2643403 
4.308245 10.66311 6.881497 0.2078067 0.9417753 -0.2643403 
4.720779 10.50614 6.646595 0.2078067 0.9417753 -0.2643403 
5.133314 10.34918 6.411693 0.2078067 0.9417753 -0.2643403 
5.545848 10.19222 6.176791 0.2078067 0.9417753 -0.2643403 
5.958382 10.03526 5.941889 0.2078067 0.9417753 -0.2643403 
6.370917 9.878303 5.706988 0.2078067 0.9417753 -0.2643403 
6.783451 9.721342 5.472086 0.2078067 0.9417753 -0.2643403 
7.195985 9.564382 5.237184 0.2078067 0.9417753 -0.2643403 
-0.7919853 12.76383 10.35635 0.2078067 0.9417753 -0.2643403 
-0.3794510 12.60686 10.12145 0.2078067 0.9417753 -0.2643403 
0.03308329 12.44990 9.886549 0.2078067 0.9417753 -0.2643403 
0.4456176 12.29294 9.651648 0.2078067 0.9417753 -0.2643403 
0.8581519 12.13598 9.416745 0.2078067 0.9417753 -0.2643403 
1.270686 11.97902 9.181844 0.2078067 0.9417753 -0.2643403 
1.683221 11.82206 8.946941 0.2078067 0.9417753 -0.2643403 
2.095755 11.66510 8.712040 0.2078067 0.9417753 -0.2643403 
2.508289 11.50814 8.477138 0.2078067 0.9417753 -0.2643403 
2.920824 11.35118 8.242236 0.2078067 0.9417753 -0.2643403 
3.333358 11.19422 8.007335 0.2078067 0.9417753 -0.2643403 
3.745892 11.03726 7.772432 0.2078067 0.9417753 -0.2643403 
4.158426 10.88030 7.537531 0.2078067 0.9417753 -0.2643403 
4.570961 10.72334 7.302629 0.2078067 0.9417753 -0.2643403 
4.983495 10.56638 7.067727 0.2078067 0.9417753 -0.2643403 
5.396029 10.40942 6.832825 0.2078067 0.9417753 -0.2643403 
5.808564 10.25246 6.597923 0.2078067 0.9417753 -0.2643403 
6.221098 10.09550 6.363021 0.2078067 0.9417753 -0.2643403 
6.633632 9.938538 6.128119 0.2078067 0.9417753 -0.2643403 
7.046167 9.781578 5.893218 0.2078067 0.9417753 -0.2643403 
7.458701 9.624618 5.658316 0.2078067 0.9417753 -0.2643403 
-0.5292696 12.82406 10.77748 0.2078067 0.9417753 -0.2643403 
-0.1167353 12.66710 10.54258 0.2078067 0.9417753 -0.2643403 
0.2957990 12.51014 10.30768 0.2078067 0.9417753 -0.2643403 
0.7083333 12.35318 10.07278 0.2078067 0.9417753 -0.2643403 
1.120868 12.19622 9.837877 0.2078067 0.9417753 -0.2643403 
1.533402 12.03926 9.602976 0.2078067 0.9417753 -0.2643403 
1.945936 11.88230 9.368073 0.2078067 0.9417753 -0.2643403 
2.358471 11.72534 9.133172 0.2078067 0.9417753 -0.2643403 
2.771005 11.56838 8.898270 0.2078067 0.9417753 -0.2643403 
3.183539 11.41142 8.663368 0.2078067 0.9417753 -0.2643403 
3.596074 11.25446 8.428467 0.2078067 0.9417753 -0.2643403 
4.008608 11.09750 8.193564 0.2078067 0.9417753 -0.2643403 
4.421142 10.94054 7.958663 0.2078067 0.9417753 -0.2643403 
4.833676 10.78358 7.723761 0.2078067 0.9417753 -0.2643403 
5.246211 10.62661 7.488859 0.2078067 0.9417753 -0.2643403 
5.658745 10.46965 7.253957 0.2078067 0.9417753 -0.2643403 
6.071280 10.31269 7.019055 0.2078067 0.9417753 -0.2643403 
6.483814 10.15573 6.784153 0.2078067 0.9417753 -0.2643403 
6.896348 9.998774 6.549252 0.2078067 0.9417753 -0.2643403 
7.308882 9.841813 6.314350 0.2078067 0.9417753 -0.2643403 
7.721416 9.684853 6.079448 0.2078067 0.9417753 -0.2643403 
-0.2665540 12.88430 11.19862 0.2078067 0.9417753 -0.2643403 
0.1459803 12.72733 10.96371 0.2078067 0.9417753 -0.2643403 
0.5585147 12.57037 10.72881 0.2078067 0.9417753 -0.2643403 
0.9710490 12.41341 10.49391 0.2078067 0.9417753 -0.2643403 
1.383583 12.25645 10.25901 0.2078067 0.9417753 -0.2643403 
1.796118 12.09949 10.02411 0.2078067 0.9417753 -0.2643403 
2.208652 11.94253 9.789206 0.2078067 0.9417753 -0.2643403 
2.621186 11.78557 9.554304 0.2078067 0.9417753 -0.2643403 
3.033720 11.62861 9.319402 0.2078067 0.9417753 -0.2643403 
3.446255 11.47165 9.084500 0.2078067 0.9417753 -0.2643403 
3.858789 11.31469 8.849599 0.2078067 0.9417753 -0.2643403 
4.271324 11.15773 8.614697 0.2078067 0.9417753 -0.2643403 
4.683858 11.00077 8.379795 0.2078067 0.9417753 -0.2643403 
5.096392 10.84381 8.144893 0.2078067 0.9417753 -0.2643403 
5.508926 10.68685 7.909991 0.2078067 0.9417753 -0.2643403 
5.921461 10.52989 7.675089 0.2078067 0.9417753 -0.2643403 
6.333995 10.37293 7.440187 0.2078067 0.9417753 -0.2643403 
6.746530 10.21597 7.205286 0.2078067 0.9417753 -0.2643403 
7.159064 10.05901 6.970384 0.2078067 0.9417753 -0.2643403 
7.571598 9.902048 6.735482 0.2078067 0.9417753 -0.2643403 
7.984132 9.745088 6.500580 0.2078067 0.9417753 -0.2643403 
-0.003838279 12.94453 11.61975 0.2078067 0.9417753 -0.2643403 
0.4086960 12.78757 11.38485 0.2078067 0.9417753 -0.2643403 
0.8212304 12.63061 11.14995 0.2078067 0.9417753 -0.2643403 
1.233765 12.47365 10.91504 0.2078067 0.9417753 -0.2643403 
1.646299 12.31669 10.68014 0.2078067 0.9417753 -0.2643403 
2.058833 12.15973 10.44524 0.2078067 0.9417753 -0.2643403 
2.471368 12.00277 10.21034 0.2078067 0.9417753 -0.2643403 
2.883902 11.84581 9.975436 0.2078067 0.9417753 -0.2643403 
3.296436 11.68885 9.740534 0.2078067 0.9417753 -0.2643403 
3.708971 11.53189 9.505632 0.2078067 0.9417753 -0.2643403 
4.121505 11.37493 9.270730 0.2078067 0.9417753 -0.2643403 
4.534039 11.21797 9.035829 0.2078067 0.9417753 -0.2643403 
4.946574 11.06101 8.800927 0.2078067 0.9417753 -0.2643403 
5.359108 10.90405 8.566025 0.2078067 0.9417753 -0.2643403 
5.771642 10.74709 8.331123 0.2078067 0.9417753 -0.2643403 
6.184176 10.59013 8.096221 0.2078067 0.9417753 -0.2643403 
6.596711 10.43316 7.861320 0.2078067 0.9417753 -0.2643403 
7.009245 10.27620 7.626418 0.2078067 0.9417753 -0.2643403 
7.421780 10.11924 7.391516 0.2078067 0.9417753 -0.2643403 
7.834314 9.962283 7.156614 0.2078067 0.9417753 -0.2643403 
8.246848 9.805323 6.921712 0.2078067 0.9417753 -0.2643403 
0.2588774 13.00477 12.04088 0.2078067 0.9417753 -0.2643403 
0.6714118 12.84781 11.80598 0.2078067 0.9417753 -0.2643403 
1.083946 12.69085 11.57108 0.2078067 0.9417753 -0.2643403 
1.496480 12.53389 11.33617 0.2078067 0.9417753 -0.2643403 
1.909015 12.37692 11.10127 0.2078067 0.9417753 -0.2643403 
2.321549 12.21996 10.86637 0.2078067 0.9417753 -0.2643403 
2.734083 12.06300 10.63147 0.2078067 0.9417753 -0.2643403 
3.146618 11.90604 10.39657 0.2078067 0.9417753 -0.2643403 
3.559152 11.74908 10.16167 0.2078067 0.9417753 -0.2643403 
3.971686 11.59212 9.926764 0.2078067 0.9417753 -0.2643403 
4.384221 11.43516 9.691862 0.2078067 0.9417753 -0.2643403 
4.796755 11.27820 9.456961 0.2078067 0.9417753 -0.2643403 
5.209289 11.12124 9.222059 0.2078067 0.9417753 -0.2643403 
5.621823 10.96428 8.987157 0.2078067 0.9417753 -0.2643403 
6.034358 10.80732 8.752255 0.2078067 0.9417753 -0.2643403 
6.446892 10.65036 8.517353 0.2078067 0.9417753 -0.2643403 
6.859426 10.49340 8.282452 0.2078067 0.9417753 -0.2643403 
7.271961 10.33644 8.047549 0.2078067 0.9417753 -0.2643403 
7.684495 10.17948 7.812648 0.2078067 0.9417753 -0.2643403 
8.097030 10.02252 7.577746 0.2078067 0.9417753 -0.2643403 
8.509563 9.865559 7.342844 0.2078067 0.9417753 -0.2643403 
0.5215931 13.06500 12.46201 0.2078067 0.9417753 -0.2643403 
0.9341274 12.90804 12.22711 0.2078067 0.9417753 -0.2643403 
1.346662 12.75108 11.99221 0.2078067 0.9417753 -0.2643403 
1.759196 12.59412 11.75731 0.2078067 0.9417753 -0.2643403 
2.171730 12.43716 11.52241 0.2078067 0.9417753 -0.2643403 
2.584265 12.28020 11.28750 0.2078067 0.9417753 -0.2643403 
2.996799 12.12324 11.05260 0.2078067 0.9417753 -0.2643403 
3.409333 11.96628 10.81770 0.2078067 0.9417753 -0.2643403 
3.821868 11.80932 10.58280 0.2078067 0.9417753 -0.2643403 
4.234402 11.65236 10.34790 0.2078067 0.9417753 -0.2643403 
4.646936 11.49540 10.11299 0.2078067 0.9417753 -0.2643403 
5.059471 11.33844 9.878093 0.2078067 0.9417753 -0.2643403 
5.472005 11.18148 9.643190 0.2078067 0.9417753 -0.2643403 
5.884539 11.02452 9.408289 0.2078067 0.9417753 -0.2643403 
6.297073 10.86756 9.173388 0.2078067 0.9417753 -0.2643403 
6.709608 10.71060 8.938485 0.2078067 0.9417753 -0.2643403 
7.122142 10.55364 8.703584 0.2078067 0.9417753 -0.2643403 
7.534677 10.39668 8.468681 0.2078067 0.9417753 -0.2643403 
7.947211 10.23971 8.233780 0.2078067 0.9417753 -0.2643403 
8.359745 10.08275 7.998878 0.2078067 0.9417753 -0.2643403 
8.772280 9.925794 7.763976 0.2078067 0.9417753 -0.2643403 
0.7843088 13.12524 12.88315 0.2078067 0.9417753 -0.2643403 
1.196843 12.96828 12.64824 0.2078067 0.9417753 -0.2643403 
1.609377 12.81132 12.41334 0.2078067 0.9417753 -0.2643403 
2.021912 12.65436 12.17844 0.2078067 0.9417753 -0.2643403 
2.434446 12.49740 11.94354 0.2078067 0.9417753 -0.2643403 
2.846980 12.34044 11.70864 0.2078067 0.9417753 -0.2643403 
3.259515 12.18347 11.47373 0.2078067 0.9417753 -0.2643403 
3.672049 12.02651 11.23883 0.2078067 0.9417753 -0.2643403 
4.084583 11.86955 11.00393 0.2078067 0.9417753 -0.2643403 
4.497118 11.71259 10.76903 0.2078067 0.9417753 -0.2643403 
4.909652 11.55563 10.53413 0.2078067 0.9417753 -0.2643403 
5.322186 11.39867 10.29922 0.2078067 0.9417753 -0.2643403 
5.734721 11.24171 10.06432 0.2078067 0.9417753 -0.2643403 
6.147255 11.08475 9.829421 0.2078067 0.9417753 -0.2643403 
6.559789 10.92779 9.594520 0.2078067 0.9417753 -0.2643403 
6.972323 10.77083 9.359617 0.2078067 0.9417753 -0.2643403 
7.384858 10.61387 9.124716 0.2078067 0.9417753 -0.2643403 
7.797392 10.45691 8.889813 0.2078067 0.9417753 -0.2643403 
8.209927 10.29995 8.654912 0.2078067 0.9417753 -0.2643403 
8.622460 10.14299 8.420010 0.2078067 0.9417753 -0.2643403 
9.034995 9.986029 8.185108 0.2078067 0.9417753 -0.2643403 
1.047024 13.18547 13.30428 0.2078067 0.9417753 -0.2643403 
1.459559 13.02851 13.06938 0.2078067 0.9417753 -0.2643403 
1.872093 12.87155 12.83447 0.2078067 0.9417753 -0.2643403 
2.284627 12.71459 12.59957 0.2078067 0.9417753 -0.2643403 
2.697162 12.55763 12.36467 0.2078067 0.9417753 -0.2643403 
3.109696 12.40067 12.12977 0.2078067 0.9417753 -0.2643403 
3.522230 12.24371 11.89487 0.2078067 0.9417753 -0.2643403 
3.934765 12.08675 11.65996 0.2078067 0.9417753 -0.2643403 
4.347299 11.92979 11.42506 0.2078067 0.9417753 -0.2643403 
4.759833 11.77283 11.19016 0.2078067 0.9417753 -0.2643403 
5.172368 11.61587 10.95526 0.2078067 0.9417753 -0.2643403 
5.584902 11.45891 10.72036 0.2078067 0.9417753 -0.2643403 
5.997436 11.30195 10.48545 0.2078067 0.9417753 -0.2643403 
6.409971 11.14499 10.25055 0.2078067 0.9417753 -0.2643403 
6.822505 10.98803 10.01565 0.2078067 0.9417753 -0.2643403 
7.235039 10.83107 9.780749 0.2078067 0.9417753 -0.2643403 
7.647573 10.67411 9.545848 0.2078067 0.9417753 -0.2643403 
8.060108 10.51715 9.310946 0.2078067 0.9417753 -0.2643403 
8.472642 10.36018 9.076044 0.2078067 0.9417753 -0.2643403 
8.885177 10.20322 8.841142 0.2078067 0.9417753 -0.2643403 
9.297710 10.04626 8.606240 0.2078067 0.9417753 -0.2643403 
1.309740 13.24571 13.72541 0.2078067 0.9417753 -0.2643403 
1.722274 13.08875 13.49051 0.2078067 0.9417753 -0.2643403 
2.134809 12.93179 13.25561 0.2078067 0.9417753 -0.2643403 
2.547343 12.77483 13.02070 0.2078067 0.9417753 -0.2643403 
2.959877 12.61787 12.78580 0.2078067 0.9417753 -0.2643403 
3.372412 12.46091 12.55090 0.2078067 0.9417753 -0.2643403 
3.784946 12.30394 12.31600 0.2078067 0.9417753 -0.2643403 
4.197480 12.14698 12.08110 0.2078067 0.9417753 -0.2643403 
4.610015 11.99002 11.84619 0.2078067 0.9417753 -0.2643403 
5.022549 11.83306 11.61129 0.2078067 0.9417753 -0.2643403 
5.435083 11.67610 11.37639 0.2078067 0.9417753 -0.2643403 
5.847618 11.51914 11.14149 0.2078067 0.9417753 -0.2643403 
6.260152 11.36218 10.90659 0.2078067 0.9417753 -0.2643403 
6.672686 11.20522 10.67169 0.2078067 0.9417753 -0.2643403 
7.085221 11.04826 10.43678 0.2078067 0.9417753 -0.2643403 
7.497755 10.89130 10.20188 0.2078067 0.9417753 -0.2643403 
7.910289 10.73434 9.966980 0.2078067 0.9417753 -0.2643403 
8.322824 10.57738 9.732078 0.2078067 0.9417753 -0.2643403 
8.735358 10.42042 9.497176 0.2078067 0.9417753 -0.2643403 
9.147892 10.26346 9.262274 0.2078067 0.9417753 -0.2643403 
9.560427 10.10650 9.027372 0.2078067 0.9417753 -0.2643403 
1.572456 13.30594 14.14654 0.2078067 0.9417753 -0.2643403 
1.984990 13.14898 13.91164 0.2078067 0.9417753 -0.2643403 
2.397525 12.99202 13.67674 0.2078067 0.9417753 -0.2643403 
2.810059 12.83506 13.44184 0.2078067 0.9417753 -0.2643403 
3.222593 12.67810 13.20693 0.2078067 0.9417753 -0.2643403 
3.635128 12.52114 12.97203 0.2078067 0.9417753 -0.2643403 
4.047662 12.36418 12.73713 0.2078067 0.9417753 -0.2643403 
4.460196 12.20722 12.50223 0.2078067 0.9417753 -0.2643403 
4.872730 12.05026 12.26733 0.2078067 0.9417753 -0.2643403 
5.285264 11.89330 12.03242 0.2078067 0.9417753 -0.2643403 
5.697799 11.73634 11.79752 0.2078067 0.9417753 -0.2643403 
6.110333 11.57938 11.56262 0.2078067 0.9417753 -0.2643403 
6.522868 11.42242 11.32772 0.2078067 0.9417753 -0.2643403 
6.935402 11.26546 11.09282 0.2078067 0.9417753 -0.2643403 
7.347936 11.10850 10.85791 0.2078067 0.9417753 -0.2643403 
7.760470 10.95154 10.62301 0.2078067 0.9417753 -0.2643403 
8.173005 10.79458 10.38811 0.2078067 0.9417753 -0.2643403 
8.585539 10.63762 10.15321 0.2078067 0.9417753 -0.2643403 
8.998074 10.48066 9.918308 0.2078067 0.9417753 -0.2643403 
9.410608 10.32370 9.683406 0.2078067 0.9417753 -0.2643403 
9.823142 10.16673 9.448504 0.2078067 0.9417753 -0.2643403 
1.835172 13.36618 14.56767 0.2078067 0.9417753 -0.2643403 
2.247706 13.20922 14.33277 0.2078067 0.9417753 -0.2643403 
2.660240 13.05226 14.09787 0.2078067 0.9417753 -0.2643403 
3.072774 12.89530 13.86297 0.2078067 0.9417753 -0.2643403 
3.485309 12.73834 13.62807 0.2078067 0.9417753 -0.2643403 
3.897843 12.58138 13.39316 0.2078067 0.9417753 -0.2643403 
4.310378 12.42442 13.15826 0.2078067 0.9417753 -0.2643403 
4.722912 12.26746 12.92336 0.2078067 0.9417753 -0.2643403 
5.135446 12.11049 12.68846 0.2078067 0.9417753 -0.2643403 
5.547980 11.95353 12.45356 0.2078067 0.9417753 -0.2643403 
5.960515 11.79657 12.21865 0.2078067 0.9417753 -0.2643403 
6.373049 11.63961 11.98375 0.2078067 0.9417753 -0.2643403 
6.785583 11.48265 11.74885 0.2078067 0.9417753 -0.2643403 
7.198118 11.32569 11.51395 0.2078067 0.9417753 -0.2643403 
7.610652 11.16873 11.27905 0.2078067 0.9417753 -0.2643403 
8.023187 11.01177 11.04415 0.2078067 0.9417753 -0.2643403 
8.435720 10.85481 10.80924 0.2078067 0.9417753 -0.2643403 
8.848255 10.69785 10.57434 0.2078067 0.9417753 -0.2643403 
9.260789 10.54089 10.33944 0.2078067 0.9417753 -0.2643403 
9.673324 10.38393 10.10454 0.2078067 0.9417753 -0.2643403 
10.08586 10.22697 9.869637 0.2078067 0.9417753 -0.2643403 
2.097887 13.42641 14.98880 0.2078067 0.9417753 -0.2643403 
2.510422 13.26945 14.75390 0.2078067 0.9417753 -0.2643403 
2.922956 13.11249 14.51900 0.2078067 0.9417753 -0.2643403 
3.335490 12.95553 14.28410 0.2078067 0.9417753 -0.2643403 
3.748024 12.79857 14.04920 0.2078067 0.9417753 -0.2643403 
4.160559 12.64161 13.81430 0.2078067 0.9417753 -0.2643403 
4.573093 12.48465 13.57939 0.2078067 0.9417753 -0.2643403 
4.985628 12.32769 13.34449 0.2078067 0.9417753 -0.2643403 
5.398162 12.17073 13.10959 0.2078067 0.9417753 -0.2643403 
5.810696 12.01377 12.87469 0.2078067 0.9417753 -0.2643403 
6.223230 11.85681 12.63979 0.2078067 0.9417753 -0.2643403 
6.635765 11.69985 12.40488 0.2078067 0.9417753 -0.2643403 
7.048299 11.54289 12.16998 0.2078067 0.9417753 -0.2643403 
7.460834 11.38593 11.93508 0.2078067 0.9417753 -0.2643403 
7.873368 11.22897 11.70018 0.2078067 0.9417753 -0.2643403 
8.285902 11.07201 11.46528 0.2078067 0.9417753 -0.2643403 
8.698437 10.91505 11.23038 0.2078067 0.9417753 -0.2643403 
9.110970 10.75809 10.99547 0.2078067 0.9417753 -0.2643403 
9.523505 10.60113 10.76057 0.2078067 0.9417753 -0.2643403 
9.936039 10.44417 10.52567 0.2078067 0.9417753 -0.2643403 
10.34857 10.28720 10.29077 0.2078067 0.9417753 -0.2643403 
-5.234493 2.803955 9.209567 -0.5254314 -0.1204705 -0.8422641 
-5.130590 3.274843 9.077397 -0.5254314 -0.1204705 -0.8422641 
-5.026687 3.745731 8.945227 -0.5254314 -0.1204705 -0.8422641 
-4.922783 4.216618 8.813057 -0.5254314 -0.1204705 -0.8422641 
-4.818880 4.687506 8.680887 -0.5254314 -0.1204705 -0.8422641 
-4.714977 5.158393 8.548717 -0.5254314 -0.1204705 -0.8422641 
-4.611073 5.629281 8.416547 -0.5254314 -0.1204705 -0.8422641 
-4.507170 6.100169 8.284376 -0.5254314 -0.1204705 -0.8422641 
-4.403267 6.571056 8.152206 -0.5254314 -0.1204705 -0.8422641 
-4.299363 7.041944 8.020036 -0.5254314 -0.1204705 -0.8422641 
-4.195460 7.512832 7.887866 -0.5254314 -0.1204705 -0.8422641 
-4.091557 7.983719 7.755696 -0.5254314 -0.1204705 -0.8422641 
-3.987653 8.454607 7.623526 -0.5254314 -0.1204705 -0.8422641 
-3.883750 8.925494 7.491355 -0.5254314 -0.1204705 -0.8422641 
-3.779847 9.396382 7.359185 -0.5254314 -0.1204705 -0.8422641 
-3.675943 9.867270 7.227015 -0.5254314 -0.1204705 -0.8422641 
-3.572040 10.33816 7.094845 -0.5254314 -0.1204705 -0.8422641 
-3.468137 10.80904 6.962675 -0.5254314 -0.1204705 -0.8422641 
-3.364233 11.27993 6.830505 -0.5254314 -0.1204705 -0.8422641 
-3.260330 11.75082 6.698335 -0.5254314 -0.1204705 -0.8422641 
-3.156426 12.22171 6.566164 -0.5254314 -0.1204705 -0.8422641 
-4.821959 2.646995 8.974666 -0.5254314 -0.1204705 -0.8422641 
-4.718056 3.117883 8.842495 -0.5254314 -0.1204705 -0.8422641 
-4.614152 3.588770 8.710325 -0.5254314 -0.1204705 -0.8422641 
-4.510249 4.059658 8.578156 -0.5254314 -0.1204705 -0.8422641 
-4.406346 4.530545 8.445985 -0.5254314 -0.1204705 -0.8422641 
-4.302443 5.001433 8.313815 -0.5254314 -0.1204705 -0.8422641 
-4.198539 5.472321 8.181644 -0.5254314 -0.1204705 -0.8422641 
-4.094635 5.943208 8.049475 -0.5254314 -0.1204705 -0.8422641 
-3.990732 6.414096 7.917305 -0.5254314 -0.1204705 -0.8422641 
-3.886829 6.884984 7.785134 -0.5254314 -0.1204705 -0.8422641 
-3.782926 7.355871 7.652964 -0.5254314 -0.1204705 -0.8422641 
-3.679022 7.826759 7.520794 -0.5254314 -0.1204705 -0.8422641 
-3.575119 8.297647 7.388624 -0.5254314 -0.1204705 -0.8422641 
-3.471216 8.768534 7.256454 -0.5254314 -0.1204705 -0.8422641 
-3.367312 9.239422 7.124283 -0.5254314 -0.1204705 -0.8422641 
-3.263409 9.710309 6.992114 -0.5254314 -0.1204705 -0.8422641 
-3.159506 10.18120 6.859943 -0.5254314 -0.1204705 -0.8422641 
-3.055602 10.65208 6.727773 -0.5254314 -0.1204705 -0.8422641 
-2.951699 11.12297 6.595603 -0.5254314 -0.1204705 -0.8422641 
-2.847795 11.59386 6.463433 -0.5254314 -0.1204705 -0.8422641 
-2.743892 12.06475 6.331263 -0.5254314 -0.1204705 -0.8422641 
-4.409425 2.490035 8.739763 -0.5254314 -0.1204705 -0.8422641 
-4.305521 2.960922 8.607594 -0.5254314 -0.1204705 -0.8422641 
-4.201618 3.431810 8.475424 -0.5254314 -0.1204705 -0.8422641 
-4.097715 3.902698 8.343253 -0.5254314 -0.1204705 -0.8422641 
-3.993811 4.373585 8.211083 -0.5254314 -0.1204705 -0.8422641 
-3.889908 4.844473 8.078913 -0.5254314 -0.1204705 -0.8422641 
-3.786005 5.315360 7.946743 -0.5254314 -0.1204705 -0.8422641 
-3.682101 5.786248 7.814573 -0.5254314 -0.1204705 -0.8422641 
-3.578198 6.257135 7.682403 -0.5254314 -0.1204705 -0.8422641 
-3.474295 6.728023 7.550232 -0.5254314 -0.1204705 -0.8422641 
-3.370391 7.198911 7.418062 -0.5254314 -0.1204705 -0.8422641 
-3.266488 7.669798 7.285892 -0.5254314 -0.1204705 -0.8422641 
-3.162585 8.140686 7.153722 -0.5254314 -0.1204705 -0.8422641 
-3.058681 8.611573 7.021552 -0.5254314 -0.1204705 -0.8422641 
-2.954778 9.082461 6.889382 -0.5254314 -0.1204705 -0.8422641 
-2.850875 9.553349 6.757212 -0.5254314 -0.1204705 -0.8422641 
-2.746971 10.02424 6.625041 -0.5254314 -0.1204705 -0.8422641 
-2.643068 10.49512 6.492871 -0.5254314 -0.1204705 -0.8422641 
-2.539165 10.96601 6.360701 -0.5254314 -0.1204705 -0.8422641 
-2.435261 11.43690 6.228531 -0.5254314 -0.1204705 -0.8422641 
-2.331358 11.90779 6.096361 -0.5254314 -0.1204705 -0.8422641 
-3.996891 2.333074 8.504862 -0.5254314 -0.1204705 -0.8422641 
-3.892987 2.803962 8.372692 -0.5254314 -0.1204705 -0.8422641 
-3.789084 3.274849 8.240521 -0.5254314 -0.1204705 -0.8422641 
-3.685180 3.745737 8.108352 -0.5254314 -0.1204705 -0.8422641 
-3.581277 4.216625 7.976182 -0.5254314 -0.1204705 -0.8422641 
-3.477374 4.687512 7.844011 -0.5254314 -0.1204705 -0.8422641 
-3.373471 5.158400 7.711841 -0.5254314 -0.1204705 -0.8422641 
-3.269567 5.629288 7.579671 -0.5254314 -0.1204705 -0.8422641 
-3.165664 6.100175 7.447501 -0.5254314 -0.1204705 -0.8422641 
-3.061760 6.571063 7.315331 -0.5254314 -0.1204705 -0.8422641 
-2.957857 7.041950 7.183160 -0.5254314 -0.1204705 -0.8422641 
-2.853954 7.512838 7.050990 -0.5254314 -0.1204705 -0.8422641 
-2.750050 7.983726 6.918820 -0.5254314 -0.1204705 -0.8422641 
-2.646147 8.454614 6.786650 -0.5254314 -0.1204705 -0.8422641 
-2.542244 8.925501 6.654480 -0.5254314 -0.1204705 -0.8422641 
-2.438340 9.396388 6.522310 -0.5254314 -0.1204705 -0.8422641 
-2.334437 9.867276 6.390140 -0.5254314 -0.1204705 -0.8422641 
-2.230534 10.33816 6.257969 -0.5254314 -0.1204705 -0.8422641 
-2.126630 10.80905 6.125799 -0.5254314 -0.1204705 -0.8422641 
-2.022727 11.27994 5.993629 -0.5254314 -0.1204705 -0.8422641 
-1.918824 11.75083 5.861459 -0.5254314 -0.1204705 -0.8422641 
-3.584356 2.176114 8.269960 -0.5254314 -0.1204705 -0.8422641 
-3.480453 2.647002 8.137790 -0.5254314 -0.1204705 -0.8422641 
-3.376549 3.117889 8.005620 -0.5254314 -0.1204705 -0.8422641 
-3.272646 3.588777 7.873450 -0.5254314 -0.1204705 -0.8422641 
-3.168743 4.059664 7.741280 -0.5254314 -0.1204705 -0.8422641 
-3.064839 4.530552 7.609109 -0.5254314 -0.1204705 -0.8422641 
-2.960936 5.001440 7.476939 -0.5254314 -0.1204705 -0.8422641 
-2.857033 5.472327 7.344769 -0.5254314 -0.1204705 -0.8422641 
-2.753129 5.943215 7.212599 -0.5254314 -0.1204705 -0.8422641 
-2.649226 6.414103 7.080429 -0.5254314 -0.1204705 -0.8422641 
-2.545323 6.884990 6.948258 -0.5254314 -0.1204705 -0.8422641 
-2.441419 7.355877 6.816089 -0.5254314 -0.1204705 -0.8422641 
-2.337516 7.826765 6.683918 -0.5254314 -0.1204705 -0.8422641 
-2.233613 8.297653 6.551748 -0.5254314 -0.1204705 -0.8422641 
-2.129709 8.768540 6.419578 -0.5254314 -0.1204705 -0.8422641 
-2.025806 9.239429 6.287408 -0.5254314 -0.1204705 -0.8422641 
-1.921903 9.710316 6.155238 -0.5254314 -0.1204705 -0.8422641 
-1.817999 10.18120 6.023067 -0.5254314 -0.1204705 -0.8422641 
-1.714096 10.65209 5.890897 -0.5254314 -0.1204705 -0.8422641 
-1.610193 11.12298 5.758728 -0.5254314 -0.1204705 -0.8422641 
-1.506289 11.59387 5.626557 -0.5254314 -0.1204705 -0.8422641 
-3.171822 2.019153 8.035058 -0.5254314 -0.1204705 -0.8422641 
-3.067919 2.490041 7.902888 -0.5254314 -0.1204705 -0.8422641 
-2.964015 2.960929 7.770718 -0.5254314 -0.1204705 -0.8422641 
-2.860112 3.431816 7.638548 -0.5254314 -0.1204705 -0.8422641 
-2.756208 3.902704 7.506378 -0.5254314 -0.1204705 -0.8422641 
-2.652305 4.373591 7.374207 -0.5254314 -0.1204705 -0.8422641 
-2.548402 4.844479 7.242037 -0.5254314 -0.1204705 -0.8422641 
-2.444499 5.315367 7.109867 -0.5254314 -0.1204705 -0.8422641 
-2.340595 5.786254 6.977697 -0.5254314 -0.1204705 -0.8422641 
-2.236692 6.257142 6.845527 -0.5254314 -0.1204705 -0.8422641 
-2.132788 6.728030 6.713357 -0.5254314 -0.1204705 -0.8422641 
-2.028885 7.198917 6.581187 -0.5254314 -0.1204705 -0.8422641 
-1.924982 7.669805 6.449017 -0.5254314 -0.1204705 -0.8422641 
-1.821078 8.140693 6.316846 -0.5254314 -0.1204705 -0.8422641 
-1.717175 8.611580 6.184676 -0.5254314 -0.1204705 -0.8422641 
-1.613272 9.082468 6.052506 -0.5254314 -0.1204705 -0.8422641 
-1.509368 9.553355 5.920336 -0.5254314 -0.1204705 -0.8422641 
-1.405465 10.02424 5.788166 -0.5254314 -0.1204705 -0.8422641 
-1.301562 10.49513 5.655996 -0.5254314 -0.1204705 -0.8422641 
-1.197658 10.96602 5.523826 -0.5254314 -0.1204705 -0.8422641 
-1.093755 11.43691 5.391655 -0.5254314 -0.1204705 -0.8422641 
-2.759288 1.862193 7.800156 -0.5254314 -0.1204705 -0.8422641 
-2.655384 2.333081 7.667986 -0.5254314 -0.1204705 -0.8422641 
-2.551481 2.803968 7.535816 -0.5254314 -0.1204705 -0.8422641 
-2.447577 3.274856 7.403646 -0.5254314 -0.1204705 -0.8422641 
-2.343674 3.745744 7.271476 -0.5254314 -0.1204705 -0.8422641 
-2.239771 4.216631 7.139306 -0.5254314 -0.1204705 -0.8422641 
-2.135868 4.687519 7.007135 -0.5254314 -0.1204705 -0.8422641 
-2.031964 5.158406 6.874965 -0.5254314 -0.1204705 -0.8422641 
-1.928061 5.629294 6.742795 -0.5254314 -0.1204705 -0.8422641 
-1.824157 6.100182 6.610625 -0.5254314 -0.1204705 -0.8422641 
-1.720254 6.571069 6.478455 -0.5254314 -0.1204705 -0.8422641 
-1.616351 7.041957 6.346285 -0.5254314 -0.1204705 -0.8422641 
-1.512447 7.512845 6.214115 -0.5254314 -0.1204705 -0.8422641 
-1.408544 7.983732 6.081944 -0.5254314 -0.1204705 -0.8422641 
-1.304641 8.454619 5.949774 -0.5254314 -0.1204705 -0.8422641 
-1.200737 8.925508 5.817604 -0.5254314 -0.1204705 -0.8422641 
-1.096834 9.396395 5.685434 -0.5254314 -0.1204705 -0.8422641 
-0.9929307 9.867283 5.553264 -0.5254314 -0.1204705 -0.8422641 
-0.8890273 10.33817 5.421094 -0.5254314 -0.1204705 -0.8422641 
